# .PCD v0.7 - Point Cloud Data file format
VERSION 0.7
FIELDS x y z
SIZE 4 4 4
TYPE F F F
COUNT 1 1 1
WIDTH 1470
HEIGHT 1
VIEWPOINT 0 0 0 1 0 0 0
POINTS 1470
DATA ascii
-11.069596 0.8263005 -0.81806618
-10.2512 0.82017809 -0.8106212
-11.148195 0.84771097 -0.81467044
-11.072356 0.91406745 -0.81584686
-11.13938 0.93138945 -0.81688225
-8.2512398 0.93344682 -0.81971741
-11.146852 0.94411272 -0.81892782
-11.074889 0.99928737 -0.81395584
-11.075649 1.0112058 -0.81288779
-11.123569 1.1147474 -0.81101453
-11.118766 1.1148379 -0.81026137
-11.07464 1.1292126 -0.81920457
-11.127759 1.1637708 -0.81558973
-11.07492 1.1654531 -0.81996036
-8.2512398 1.1611884 -0.81943691
-11.133738 1.2029763 -0.81333029
-11.082091 1.203928 -0.81452519
-10.2512 1.2183112 -0.81093717
-11.080755 1.2542499 -0.81168222
-11.093124 1.3299785 -0.81276464
-11.082143 1.3211942 -0.81138653
-11.084906 1.3336782 -0.81531167
-11.127208 1.3537043 -0.81212181
-11.079103 1.3680543 -0.81907463
-11.137803 1.383136 -0.81462538
-11.127209 1.3904165 -0.81565142
-11.081861 1.4006587 -0.81478757
-11.128064 1.4101716 -0.81465429
-8.2512398 1.4102522 -0.81465518
-11.081489 1.4360533 -0.81688416
-10.2512 1.5648243 -0.81729639
-8.2512398 1.6001844 -0.81603134
-8.1512403 1.6859832 -0.81128454
-8.1512403 1.7285786 -0.81894749
-8.1512403 1.8322265 -0.81899029
-10.2512 1.8876987 -0.8158288
-8.2512398 1.9166616 -0.81473029
-10.25042 2.05199 -0.81628168
-10.243793 2.05199 -0.8116762
-9.7599993 2.05199 -0.81518203
-9.7014837 2.05199 -0.81568563
-9.6868706 2.05199 -0.81016964
-9.1230164 2.05199 -0.8199265
-8.7032423 2.05199 -0.81419408
-8.5971718 2.05199 -0.81561887
-8.5370293 2.05199 -0.81794667
-8.4991446 2.05199 -0.81446463
-8.2512398 2.0840945 -0.81799299
-8.1512403 2.1340642 -0.81332254
-10.229306 2.1519899 -0.81457472
-9.8581438 2.1519899 -0.81810695
-9.5532494 2.1519899 -0.81365931
-9.4427586 2.1519899 -0.81501132
-9.3632269 2.1519899 -0.81670207
-9.2495155 2.1519899 -0.81820571
-9.1223974 2.1519899 -0.81681442
-8.9880371 2.1519899 -0.81519777
-8.858696 2.1519899 -0.81999755
-8.5361204 2.1519899 -0.81468624
-8.4332638 2.1519899 -0.81275219
-8.2942085 2.1519899 -0.81360155
-9.2512598 2.1773958 -0.81396717
-8.1512403 2.1820543 -0.81232852
-9.3512297 2.2065225 -0.8102383
-9.2512598 2.239948 -0.81954283
-8.2512398 2.2334797 -0.81630188
-8.1512403 2.23733 -0.81555718
-9.3301506 2.2519901 -0.81612992
-9.2575197 2.2519901 -0.81227553
-10.02797 2.2869899 -0.81345248
-9.7825708 2.2869899 -0.81390262
-9.4916325 2.2869899 -0.81100267
-8.2512398 2.2828636 -0.8195039
-10.045371 2.3269899 -0.81540674
-10.010839 2.3269899 -0.81534457
-9.8921375 2.3269899 -0.81223702
-9.80972 2.3269899 -0.8170293
-9.7518578 2.3269899 -0.81808281
-9.697134 2.3269899 -0.81270349
-9.5415649 2.3269899 -0.81298095
-9.4706306 2.3269899 -0.81218809
-8.1512403 2.3567514 -0.81033063
-8.1512403 2.4702623 -0.81205386
-8.1512403 2.6174576 -0.81819433
-8.1512403 2.6397116 -0.81615084
-8.2512398 2.7412322 -0.81311744
-8.2512398 2.8275161 -0.81879473
-8.2512398 2.9376788 -0.81435609
-8.2512398 2.9896615 -0.81214523
-9.2512503 3.0190735 -0.81752491
-9.3512497 3.0509963 -0.81803006
-8.1512403 3.1246133 -0.81551552
-9.1817656 3.152 -0.81778538
-8.8881397 3.152 -0.81954443
-8.4806175 3.152 -0.81503397
-8.4633913 3.152 -0.8197704
-8.4214506 3.152 -0.81346524
-8.2512398 3.1504948 -0.81013435
-8.2512398 3.1604223 -0.81912386
-9.3512297 3.2083385 -0.81923181
-9.1060877 3.2520001 -0.81224018
-8.9446573 3.2520001 -0.8181836
-8.9205227 3.2520001 -0.81181067
-8.8361864 3.2520001 -0.81578034
-8.7970877 3.2520001 -0.81254417
-8.4878731 3.2520003 -0.8158198
-8.3694582 3.2520001 -0.81769913
-8.2597084 3.2520001 -0.8171407
-8.1512403 3.3817494 -0.81248444
-8.2512398 3.4030659 -0.81368077
-8.1512403 3.476866 -0.8110702
-8.2512398 3.5786357 -0.81959784
-8.1512403 3.6575656 -0.81593555
-8.2512398 3.7104597 -0.81781751
-8.2512398 3.7955601 -0.81810331
-8.1512403 3.8101494 -0.81008923
-8.2512398 3.9967432 -0.81837094
-8.2512398 4.0896969 -0.81215787
-8.1512403 4.1018367 -0.81944048
-8.2512398 4.2402835 -0.81744653
-8.2512398 4.253428 -0.81095612
-8.1512403 4.36415 -0.8147164
-8.2512398 4.404376 -0.81721926
-8.2512398 4.524991 -0.81728005
-8.2512398 4.58845 -0.81355715
-8.2512398 4.8104019 -0.81151408
-8.2512398 5.0220108 -0.81603551
-8.1512403 5.0248327 -0.81017953
-8.2512398 5.1694212 -0.81273156
-8.1512403 5.2460632 -0.81740308
-8.2512398 0.10638937 -0.80350053
-8.2512398 0.14241032 -0.80332518
-8.2512398 0.26697201 -0.8074283
-10.2512 0.27309397 -0.80546117
-10.1512 0.35612559 -0.80670458
-8.2512398 0.41868684 -0.80913961
-10.1512 0.6772424 -0.80011892
-11.142543 0.718633 -0.80283535
-8.2512398 0.752235 -0.80919725
-11.064425 0.76517618 -0.80628365
-11.143456 0.77521223 -0.80309933
-10.1512 0.77728838 -0.80753368
-8.2512398 0.77901703 -0.80527806
-11.151753 0.78637379 -0.80376351
-11.14114 0.78239357 -0.80237627
-8.1512403 0.79466224 -0.80414933
-11.151206 0.80348986 -0.80708134
-11.074594 0.80913579 -0.8075434
-11.140663 0.81344599 -0.80445445
-11.065289 0.81563801 -0.80642223
-11.153039 0.82657444 -0.80539572
-10.1512 0.82451749 -0.80552286
-11.078924 0.8533836 -0.80062836
-8.1512403 0.85033733 -0.80475122
-11.076248 0.87542957 -0.8067078
-11.154253 0.89798361 -0.80289769
-11.143412 0.8985979 -0.80211502
-11.078045 0.89239597 -0.80379725
-11.144988 0.90261137 -0.80472898
-11.077717 0.90586412 -0.80492008
-10.2512 0.92040449 -0.80146289
-11.153978 0.93713832 -0.80553579
-11.156694 0.97925436 -0.80102056
-10.1512 0.98649609 -0.80697644
-11.081298 1.0067266 -0.8015458
-11.077918 1.0001296 -0.80798918
-10.2512 1.0316753 -0.80007315
-8.2512398 1.0590119 -0.8061415
-10.2512 1.0879067 -0.8023203
-8.1512403 1.0919757 -0.80448252
-11.125844 1.1248405 -0.80873191
-10.2512 1.1305678 -0.80088925
-11.126306 1.1446037 -0.80628043
-11.128942 1.1654747 -0.80178976
-11.071525 1.1695135 -0.8070401
-11.08138 1.1744342 -0.80752331
-8.1512403 1.1758419 -0.80583626
-8.1512403 1.2104008 -0.80113828
-8.2512398 1.2221638 -0.80039519
-11.082675 1.2328839 -0.80710149
-11.139977 1.3349131 -0.80824471
-11.134094 1.3423902 -0.80523139
-10.2512 1.3565485 -0.80152339
-11.088467 1.4076574 -0.80203831
-11.133366 1.4107058 -0.80199969
-10.2512 1.4334704 -0.80012655
-11.058474 1.4956437 -0.80467379
-11.065755 1.505511 -0.80501378
-11.040854 1.5037276 -0.8021276
-8.2512398 1.5119783 -0.80994993
-8.2512398 1.5397233 -0.80513126
-10.1512 1.5867447 -0.80549407
-10.2512 1.5975623 -0.80157715
-10.2512 1.6123062 -0.80749255
-10.2512 1.634015 -0.80947167
-10.2512 1.6551828 -0.80227578
-10.1512 1.6550866 -0.80969155
-8.1512403 1.7540804 -0.80967587
-10.1512 1.8987315 -0.80939651
-10.2512 1.9626528 -0.80099446
-10.241685 2.05199 -0.80049247
-10.22072 2.05199 -0.8054837
-10.154477 2.05199 -0.80566478
-10.07317 2.05199 -0.80103332
-9.9584703 2.05199 -0.80171752
-9.7910347 2.05199 -0.80862153
-9.7714357 2.05199 -0.80794722
-9.4697161 2.05199 -0.80432665
-9.2952547 2.05199 -0.80694801
-9.2019711 2.05199 -0.80352408
-8.9340906 2.05199 -0.80579823
-8.9004459 2.05199 -0.80719173
-8.8792601 2.05199 -0.80164099
-8.7940903 2.05199 -0.8006019
-8.6050205 2.05199 -0.80032867
-8.5488939 2.05199 -0.80650187
-8.4256086 2.05199 -0.80161041
-8.354003 2.05199 -0.80935377
-8.2512398 2.0735149 -0.80323708
-8.1512403 2.1452634 -0.80773228
-10.119768 2.1519899 -0.8043403
-9.4181671 2.1519899 -0.80556571
-9.3800678 2.1519899 -0.80662298
-9.3676081 2.1519899 -0.80414933
-8.6448803 2.1519899 -0.80450004
-8.4123173 2.1519899 -0.80389661
-8.3767395 2.1519899 -0.80678082
-8.3302526 2.1519899 -0.80499113
-9.3512297 2.2352405 -0.80067426
-9.2512598 2.2338905 -0.80926877
-9.3512497 2.2540402 -0.80110425
-9.2873468 2.2519901 -0.80205435
-9.2765503 2.2519901 -0.80673987
-8.1512403 2.2613559 -0.8012737
-10.066336 2.2869899 -0.80746388
-10.043237 2.2869899 -0.80519539
-9.9108667 2.2869899 -0.80380279
-9.7547035 2.2869899 -0.80757624
-9.7028332 2.2869899 -0.80332297
-9.594697 2.2869899 -0.8068552
-9.5618992 2.2869899 -0.80527735
-9.5386925 2.2869899 -0.80441141
-9.3355274 2.2869899 -0.80654281
-9.3119211 2.2869899 -0.80461013
-9.3112497 2.2970181 -0.80873001
-8.2512398 2.2982342 -0.80254269
-9.2992315 2.30199 -0.80033523
-9.936904 2.3269899 -0.8044489
-9.8278484 2.3269899 -0.80429029
-9.8057289 2.3269899 -0.80889595
-9.7187996 2.3269899 -0.80423212
-8.1512403 2.3336656 -0.80032474
-8.1512403 2.4141259 -0.80729347
-8.1512403 2.5117772 -0.80092216
-8.2512398 2.566915 -0.80837047
-8.1512403 2.5851586 -0.80382717
-8.2512398 2.612684 -0.80164832
-8.2512398 2.7760136 -0.80648839
-8.1512403 2.7976978 -0.80973232
-8.2512398 2.853395 -0.80559385
-8.2512398 2.9224992 -0.80943537
-9.3303108 3.05199 -0.80535859
-9.3082514 3.05199 -0.80849659
-9.2930994 3.05199 -0.80429047
-9.3562498 3.0621717 -0.80797452
-9.2166147 3.152 -0.80720627
-9.1947079 3.152 -0.80465984
-9.1302834 3.152 -0.80074763
-8.9076633 3.152 -0.80760729
-8.5327702 3.152 -0.80182767
-8.4920683 3.152 -0.80934465
-8.4145594 3.152 -0.80092233
-8.1512403 3.1522017 -0.8089155
-8.2512398 3.1850512 -0.80927676
-9.3336906 3.2520001 -0.80630749
-8.9091864 3.2520001 -0.80298549
-8.6321507 3.2520003 -0.80461568
-8.4902649 3.2519999 -0.80726266
-8.3657827 3.2520001 -0.8067022
-8.3218126 3.2520001 -0.8016727
-8.1512403 3.262923 -0.80354267
-8.1512403 3.4291482 -0.8093273
-8.1512403 3.5308356 -0.80771279
-8.1512403 3.5677989 -0.80413061
-8.2512398 4.0057583 -0.80481356
-8.2512398 4.0692334 -0.80030793
-8.1512403 4.0840921 -0.80135524
-8.2512398 4.1617947 -0.80211133
-8.1512403 4.2604222 -0.80052179
-8.2512398 4.6890149 -0.80614352
-8.1512403 4.7026501 -0.80581021
-8.1512403 4.7227607 -0.80289018
-8.2512398 4.8578844 -0.80808252
-8.1512403 4.8732066 -0.80759495
-8.1512403 4.8822875 -0.80951899
-8.2512398 4.996037 -0.80830008
-8.2512398 5.1008759 -0.80606407
-8.1512403 5.1396809 -0.80490774
-8.1512403 5.1733394 -0.80072564
-10.193088 0.10199 -0.79266238
-10.2512 0.15978111 -0.79997462
-10.1512 0.25798675 -0.7942276
-8.1512403 0.27819073 -0.79163861
-10.2512 0.42551559 -0.79447788
-10.1512 0.49581245 -0.79572445
-10.1512 0.51848865 -0.79999453
-10.1512 0.5579946 -0.79510546
-10.1512 0.59427601 -0.79793286
-11.054932 0.69557554 -0.79771286
-11.043613 0.69578499 -0.79986465
-11.089547 0.71577692 -0.79335922
-11.147694 0.73544961 -0.79325455
-11.154442 0.74883372 -0.79866588
-10.2512 0.7730794 -0.79219604
-11.156569 0.79746324 -0.79729569
-11.155344 0.80531323 -0.79730648
-11.154578 0.8179509 -0.79933834
-11.15799 0.82504356 -0.79443318
-11.156651 0.83053261 -0.79538494
-8.2512398 0.9124819 -0.79306865
-11.15819 0.94205624 -0.79670429
-11.159897 0.95279819 -0.79534322
-11.083351 0.95839596 -0.79571396
-10.1512 0.95078188 -0.79089302
-11.158604 0.99726242 -0.79953593
-10.2512 0.99949563 -0.79406303
-11.083109 1.0014361 -0.79776716
-10.2512 1.0077798 -0.79709429
-11.160694 1.0127549 -0.7970587
-11.159737 1.0116128 -0.79782093
-8.1512403 1.1084735 -0.79453766
-11.106002 1.1150717 -0.79243702
-8.2512398 1.1368924 -0.79153818
-10.1512 1.1409478 -0.79535192
-11.131403 1.1534719 -0.79648572
-11.132183 1.180666 -0.79589862
-11.134578 1.1953907 -0.79167986
-11.12778 1.2030872 -0.79087877
-8.1512403 1.2099799 -0.79351848
-10.2512 1.2115636 -0.79079646
-8.1512403 1.2118539 -0.79439014
-10.1512 1.2542983 -0.79427797
-11.092638 1.3301048 -0.7999956
-11.145036 1.3405282 -0.79340869
-11.139139 1.3909487 -0.79201508
-10.2512 1.3978184 -0.79100561
-11.144154 1.4232485 -0.7911458
-11.138084 1.4233608 -0.79156965
-11.082681 1.4320428 -0.79457247
-10.1512 1.4607466 -0.79490739
-11.09091 1.4703039 -0.79949015
-11.067457 1.4954776 -0.7966603
-8.1512403 1.4948887 -0.79902035
-8.1512403 1.5620799 -0.79653096
-10.2512 1.579864 -0.79680097
-10.2512 1.6315334 -0.79917818
-10.1512 1.6383051 -0.79708767
-8.1512403 1.6496969 -0.79465055
-8.1512403 1.6932566 -0.79809952
-10.1512 1.7360743 -0.79065216
-8.2512398 1.922701 -0.79374081
-10.112837 2.05199 -0.79308081
-9.829833 2.05199 -0.79837519
-9.7305975 2.05199 -0.7927137
-9.5751047 2.05199 -0.7946282
-9.5070019 2.05199 -0.79563636
-9.421504 2.05199 -0.79486591
-9.2146111 2.05199 -0.79606557
-9.1355467 2.05199 -0.79157895
-8.8517818 2.05199 -0.79879487
-8.6202431 2.05199 -0.79740292
-8.574214 2.05199 -0.79072046
-8.5352373 2.05199 -0.79202259
-10.2512 2.150362 -0.79166383
-10.047395 2.1519899 -0.79028064
-9.9751759 2.1519899 -0.79411471
-9.6874542 2.1519899 -0.79689485
-9.6668491 2.1519899 -0.79761112
-9.5583963 2.1519899 -0.79715717
-9.4974251 2.1519899 -0.79177266
-9.4169245 2.1519899 -0.79245305
-9.3943462 2.1519899 -0.79739118
-9.3519878 2.1519899 -0.79541969
-9.3452921 2.1519899 -0.79641646
-9.169219 2.1519899 -0.79612452
-9.0166311 2.1519899 -0.79699802
-8.9484329 2.1519899 -0.79710066
-8.9173927 2.1519899 -0.79432464
-8.8756657 2.1519899 -0.79277939
-8.7414999 2.1519899 -0.79279774
-8.5109911 2.1519899 -0.79201746
-8.4510698 2.1519899 -0.79516155
-8.4459734 2.1519899 -0.79254025
-9.2462502 2.253612 -0.79774493
-9.3512497 2.2765524 -0.79624861
-9.9379482 2.2869899 -0.79533941
-9.5999994 2.2869899 -0.79526436
-9.333498 2.2869899 -0.79828137
-10.013032 2.3269899 -0.79516739
-9.9496689 2.3269899 -0.79181695
-9.8525133 2.3269899 -0.79334635
-9.8089876 2.3269899 -0.79188353
-9.5093508 2.3269899 -0.79041135
-9.3512497 2.3226101 -0.79680538
-8.2512398 2.3910384 -0.79571062
-8.2512398 2.5113001 -0.79719192
-8.1512403 2.5286388 -0.79027647
-8.2512398 2.5672541 -0.79216826
-8.1512403 2.5676982 -0.79758316
-8.1512403 2.5769966 -0.79297137
-8.1512403 2.7154415 -0.79600263
-8.2512398 2.7312064 -0.79530734
-9.2606373 3.05199 -0.79639477
-8.2512398 3.1179683 -0.7931723
-8.1512403 3.1330988 -0.79880911
-9.1834755 3.152 -0.79710609
-9.019908 3.152 -0.79223317
-8.8827705 3.152 -0.79668677
-8.5584154 3.152 -0.79200292
-8.3672209 3.152 -0.79094809
-9.3512297 3.1611934 -0.79073817
-9.3512297 3.1779447 -0.7958442
-8.2512398 3.2196105 -0.79865342
-9.3196907 3.2520001 -0.79337925
-9.0901413 3.2520001 -0.79880804
-9.0520811 3.2520001 -0.79581469
-8.9280691 3.2520001 -0.79819971
-8.7437229 3.2520001 -0.79359347
-8.1512403 3.2703593 -0.79406357
-8.2512398 3.2910502 -0.79873317
-8.2512398 3.4297891 -0.79109603
-8.1512403 3.4889393 -0.79295242
-8.2512398 3.510392 -0.79721773
-8.1512403 3.531858 -0.79951078
-8.2512398 3.5669677 -0.79204053
-8.1512403 3.5778155 -0.79510963
-8.1512403 3.589972 -0.79853302
-8.2512398 3.6117218 -0.79795986
-8.2512398 3.6722107 -0.79767233
-8.2512398 3.7106054 -0.79897118
-8.1512403 3.7189181 -0.7957859
-8.1512403 3.8708165 -0.79502487
-8.2512398 3.9478614 -0.79795814
-8.2512398 3.9761829 -0.79478031
-8.1512403 4.0195241 -0.79969996
-8.1512403 4.1725063 -0.79659897
-8.2512398 4.3364539 -0.79146904
-8.2512398 4.3454671 -0.79393095
-8.1512403 4.4734592 -0.79621398
-8.1512403 4.5438547 -0.79809368
-8.1512403 4.7881637 -0.79196537
-8.1512403 4.8332496 -0.79033136
-8.2512398 4.8699269 -0.79791063
-8.2512398 5.1518703 -0.79025489
-8.2512398 5.1861677 -0.79840356
-8.2512398 5.2224088 -0.7922132
-8.2512398 5.2329593 -0.79887944
-8.1715546 5.2519798 -0.79627919
-10.1512 0.11350764 -0.7897861
-8.2512398 0.2215858 -0.7845282
-8.2512398 0.31623879 -0.7886796
-8.2512398 0.36877143 -0.78936976
-10.1512 0.41361046 -0.78833091
-8.1512403 0.42634958 -0.78982168
-10.2512 0.51742262 -0.78266865
-11.072543 0.68524528 -0.78179729
-10.1512 0.69479018 -0.78471768
-11.09965 0.71287817 -0.78493679
-11.151091 0.73055112 -0.78635001
-11.159626 0.74047238 -0.78790998
-10.2512 0.7535401 -0.78195572
-8.2512398 0.75567341 -0.78179282
-11.076438 0.76175094 -0.78238571
-11.162506 0.78004307 -0.78225279
-8.2512398 0.79243815 -0.78291899
-11.162407 0.80294251 -0.78328341
-10.2512 0.8185516 -0.78281403
-11.08567 0.82739705 -0.78632557
-11.165194 0.84322602 -0.78082871
-11.077752 0.85883945 -0.78334081
-10.1512 0.85694003 -0.78472966
-8.1512403 0.85227311 -0.78253204
-11.086091 0.89123189 -0.78780466
-11.166206 0.90009445 -0.78090763
-11.164557 0.93976068 -0.78400272
-11.165607 0.94267964 -0.78203017
-8.1512403 0.9510709 -0.78096545
-11.16298 0.96460962 -0.78885043
-11.090351 0.96483564 -0.78207982
-11.166187 0.99612015 -0.78446829
-11.154099 0.99120957 -0.78433359
-10.2512 0.99069631 -0.7852779
-11.153975 1.0190842 -0.78559625
-11.155202 1.0300597 -0.7835657
-8.1512403 1.0300921 -0.78168339
-11.101828 1.0459464 -0.78908086
-11.081582 1.0423534 -0.78247929
-11.082161 1.0520862 -0.78169078
-10.1512 1.0744954 -0.78737861
-11.080091 1.0934601 -0.78730094
-10.2512 1.0929848 -0.78890246
-11.138252 1.1311575 -0.78212136
-11.149988 1.1589702 -0.78136081
-11.084141 1.1514839 -0.78141367
-8.2512398 1.1623521 -0.78948629
-8.2512398 1.1761003 -0.78755677
-11.148859 1.1911894 -0.78040129
-8.1512403 1.2086921 -0.78052074
-11.093132 1.2833643 -0.78825581
-10.2512 1.299161 -0.78637618
-11.095222 1.3249037 -0.7856434
-11.139825 1.3527032 -0.78707027
-11.141232 1.3793647 -0.7853027
-11.097235 1.3723888 -0.78339797
-11.157858 1.3883855 -0.78024101
-10.2512 1.447685 -0.78144115
-8.2512398 1.5043414 -0.78591359
-10.2512 1.5484658 -0.78435379
-10.2512 1.5721647 -0.7855255
-10.1512 1.5849338 -0.78093934
-8.1512403 1.5881341 -0.78850091
-8.2512398 1.6285229 -0.7859199
-8.2512398 1.6579262 -0.78974801
-10.2512 1.6643603 -0.78236216
-8.1512403 1.7643988 -0.78629678
-10.2512 1.8227755 -0.7851758
-8.2512398 1.8218349 -0.78950191
-10.1512 1.8684014 -0.78014469
-10.1512 1.9403811 -0.78062981
-8.2512398 2.0088565 -0.78321624
-10.2512 2.0531335 -0.78754812
-10.225555 2.05199 -0.78868622
-10.016217 2.05199 -0.78735888
-9.9900398 2.05199 -0.78512329
-9.9738455 2.05199 -0.78486121
-9.8239355 2.05199 -0.78182566
-9.7998848 2.05199 -0.7896955
-9.7783022 2.05199 -0.78628504
-9.7258158 2.05199 -0.7830928
-9.6962709 2.05199 -0.78169757
-9.5059271 2.05199 -0.78542864
-9.084156 2.05199 -0.78404438
-9.055913 2.05199 -0.78204709
-8.8750591 2.05199 -0.78978509
-8.7796373 2.05199 -0.78909987
-8.6362581 2.05199 -0.78084189
-8.2512398 2.0968027 -0.78650725
-10.02175 2.1519899 -0.78071463
-9.9563427 2.1519899 -0.78477305
-9.7459793 2.1519899 -0.78398901
-9.5824823 2.1519899 -0.78055084
-9.5789518 2.1519899 -0.78858155
-9.5510216 2.1519899 -0.78826374
-9.2530718 2.1519899 -0.7817151
-9.2454481 2.1519899 -0.78769857
-9.1841345 2.1519899 -0.78016049
-9.1338148 2.1519899 -0.78155512
-9.0658865 2.1519899 -0.78534323
-8.9179659 2.1519899 -0.78551537
-8.698143 2.1519899 -0.78857392
-8.411747 2.1519899 -0.78211284
-8.3437338 2.1519899 -0.78351879
-9.3512297 2.2092199 -0.78185499
-9.3512297 2.2272563 -0.78544253
-9.2979364 2.2519901 -0.78406852
-8.1512403 2.2693675 -0.78653246
-10.009148 2.2869899 -0.78594404
-9.9918413 2.2869899 -0.78076458
-9.9824686 2.2869899 -0.78050667
-9.7124434 2.2869899 -0.78707629
-9.5764942 2.2869899 -0.78965819
-9.5460119 2.2869899 -0.78305155
-9.2758446 2.30199 -0.78658545
-10.0812 2.3262644 -0.7886104
-10.010567 2.3269899 -0.78993565
-9.9644775 2.3269899 -0.78356171
-9.5597115 2.3269899 -0.7807309
-9.4753227 2.3269899 -0.78986824
-8.2512398 2.3434629 -0.78944331
-9.3512497 3.0347795 -0.78451812
-8.1512403 3.0399342 -0.78536963
-9.3480711 3.05199 -0.78196758
-9.3512297 3.0654175 -0.78412336
-9.2512598 3.1399114 -0.78542238
-8.1512403 3.1447253 -0.78939366
-9.194356 3.152 -0.78858197
-8.91399 3.152 -0.789415
-8.7838078 3.152 -0.78408307
-8.6105928 3.152 -0.78524733
-8.2767105 3.152 -0.78847277
-9.3512297 3.1634846 -0.78095937
-8.2512398 3.1756222 -0.78201026
-9.2249975 3.2520001 -0.78062212
-9.1509418 3.2520001 -0.78437167
-8.8437366 3.2520001 -0.78086245
-8.6789656 3.2520001 -0.78814608
-8.2909203 3.2520003 -0.78130865
-8.2512398 3.4726484 -0.78862917
-8.2512398 3.4972 -0.78081393
-8.1512403 3.5263627 -0.78866553
-8.1512403 3.7186775 -0.78540379
-8.1512403 3.7378812 -0.78244674
-8.1512403 3.7450745 -0.78530812
-8.1512403 3.9534011 -0.78890425
-8.2512398 4.0265832 -0.78492403
-8.2512398 4.2054338 -0.78286552
-8.1512403 4.2577705 -0.78712201
-12.200793 4.2763338 -0.78076601
-12.06731 4.285625 -0.78076601
-12.188973 4.3015251 -0.78076601
-8.1512403 4.3001366 -0.78177816
-12.219215 4.3122339 -0.78076601
-12.098139 4.3116117 -0.78076601
-12.101688 4.3337417 -0.78076601
-12.077241 4.3378534 -0.78076601
-12.28898 4.3492289 -0.78076601
-12.106358 4.3480721 -0.78076601
-12.083591 4.3552494 -0.78076601
-12.061733 4.3572779 -0.78076601
-8.2512398 4.3795447 -0.78873652
-12.119699 4.3872471 -0.78076601
-12.213021 4.396771 -0.78076601
-12.123347 4.3955703 -0.78076601
-12.106493 4.3919005 -0.78076601
-12.022992 4.4035912 -0.78076601
-12.264788 4.4246006 -0.78076601
-12.230131 4.4273376 -0.78076601
-12.200435 4.4242735 -0.78076601
-12.173607 4.4216285 -0.78076595
-11.997799 4.4210219 -0.78076601
-12.241893 4.4331846 -0.78076601
-12.288421 4.4473276 -0.78076601
-12.076616 4.4426813 -0.78076601
-12.208523 4.4537096 -0.78076601
-12.194227 4.4540911 -0.78076601
-12.185348 4.4639273 -0.78076601
-8.2512398 4.4685955 -0.78702426
-12.281863 4.4806333 -0.78076601
-12.096002 4.4909253 -0.78076601
-12.254347 4.5019045 -0.78076601
-12.100444 4.5026937 -0.78076601
-12.059867 4.5098758 -0.78076601
-12.212111 4.51121 -0.78076601
-12.051321 4.5220642 -0.78076601
-12.289238 4.5357518 -0.78076601
-12.262264 4.5331559 -0.78076601
-12.221296 4.5302739 -0.78076601
-12.207305 4.5323062 -0.78076601
-12.1809 4.537487 -0.78076601
-12.024956 4.5364165 -0.78076601
-8.2512398 4.5380473 -0.78995997
-12.019699 4.5440931 -0.78076601
-8.2512398 4.5425487 -0.78611082
-12.275904 4.5594773 -0.78076601
-12.263304 4.5595069 -0.78076601
-12.093917 4.558712 -0.78076601
-12.087217 4.5653443 -0.78076601
-12.071502 4.5680156 -0.78076601
-12.108171 4.576591 -0.78076601
-12.244834 4.586565 -0.78076601
-12.240464 4.6022806 -0.78076601
-12.134358 4.608664 -0.78076601
-11.999459 4.6070333 -0.78076601
-12.046433 4.6175489 -0.78076601
-8.1512403 4.6148458 -0.78864926
-12.103077 4.6288981 -0.78076601
-11.999825 4.6282754 -0.78076601
-12.236869 4.6359677 -0.78076601
-12.162244 4.6393027 -0.78076601
-12.255831 4.6415906 -0.78076601
-12.238165 4.6471915 -0.78076601
-12.217384 4.6498623 -0.78076601
-12.023805 4.6476417 -0.78076601
-12.012758 4.6422129 -0.78076601
-8.2512398 4.6465182 -0.78825378
-12.233065 4.650331 -0.78076601
-12.272354 4.6666241 -0.78076601
-12.20693 4.6654615 -0.78076601
-12.143759 4.6659141 -0.78076607
-12.075525 4.6601071 -0.78076601
-12.279483 4.6795197 -0.78076601
-12.085135 4.6741519 -0.78076601
-12.276346 4.6836967 -0.78076601
-12.19602 4.6996922 -0.78076601
-12.038484 4.6935635 -0.78076601
-8.2512398 4.6938 -0.7809428
-12.065262 4.7156305 -0.78076601
-12.07379 4.7214918 -0.78076601
-12.042474 4.7411003 -0.78076601
-12.008314 4.742661 -0.78076601
-12.247678 4.7639012 -0.78076601
-12.207977 4.7692928 -0.78076601
-12.041546 4.7670531 -0.78076601
-12.004228 4.766789 -0.78076601
-12.219019 4.7710037 -0.78076601
-12.125181 4.7764821 -0.78076601
-12.216327 4.7885404 -0.78076601
-12.154094 4.7883806 -0.78076601
-12.029411 4.7943993 -0.78076601
-12.177608 4.8053322 -0.78076595
-12.149596 4.8001356 -0.78076595
-11.99138 4.807004 -0.78076601
-8.2512398 4.8070316 -0.78415132
-12.229832 4.8149858 -0.78076601
-12.017394 4.8138199 -0.78076601
-12.213129 4.8380179 -0.78076601
-12.178342 4.8382359 -0.78076601
-12.039179 4.830565 -0.78076601
-12.013712 4.8392334 -0.78076601
-12.116247 4.8413377 -0.78076601
-12.090813 4.8484287 -0.78076601
-12.03238 4.8490028 -0.78076601
-8.2512398 4.8691025 -0.78125626
-12.215639 4.8826218 -0.78076601
-12.185302 4.8830771 -0.78076601
-12.00626 4.8944573 -0.78076601
-12.028346 4.9023972 -0.78076601
-12.011762 4.9092183 -0.78076601
-12.150717 4.9123249 -0.78076601
-12.083879 4.9160805 -0.78076601
-12.265576 4.9201212 -0.78076595
-8.1512403 4.9241452 -0.78445464
-12.178688 4.9339671 -0.78076601
-12.156858 4.9302874 -0.78076601
-12.124981 4.9348569 -0.78076601
-12.105265 4.9324322 -0.78076601
-11.911716 4.9375954 -0.7803492
-11.278172 4.9385362 -0.78076601
-11.932518 4.9470744 -0.78076601
-11.918998 4.9450855 -0.78076601
-11.830646 4.9440241 -0.78076601
-11.708393 4.9433875 -0.78076601
-11.663848 4.9414434 -0.78076601
-11.526726 4.9437799 -0.78076601
-11.486575 4.9451203 -0.78076601
-11.241438 4.9452009 -0.78076601
-11.040735 4.9402385 -0.78076601
-10.934074 4.9408488 -0.78076601
-10.867857 4.9401288 -0.78076601
-10.852908 4.9462323 -0.78076601
-10.531459 4.94872 -0.78076601
-12.289781 4.9528775 -0.78076595
-12.187111 4.9565482 -0.78076601
-11.987998 4.9553084 -0.78076601
-11.845953 4.9521642 -0.78076601
-11.748881 4.957653 -0.78076601
-11.540918 4.9563999 -0.78076601
-11.231729 4.9538116 -0.78076601
-11.192204 4.9590998 -0.78076601
-11.069958 4.9522181 -0.78076601
-11.045411 4.9593954 -0.78076601
-10.813507 4.9554048 -0.78076601
-10.656036 4.9545069 -0.78076601
-10.546622 4.9533014 -0.78076601
-10.488602 4.951015 -0.78076601
-12.282814 4.9632668 -0.78076601
-12.168227 4.9690256 -0.78076601
-11.950846 4.9611444 -0.78076601
-11.879349 4.9672527 -0.78076601
-11.855566 4.9665837 -0.78076601
-11.605949 4.9664664 -0.78076601
-11.595558 4.965827 -0.78076601
-11.294275 4.9610319 -0.78076601
-11.218266 4.9689922 -0.78076601
-11.048491 4.9634819 -0.78076601
-10.857285 4.9645171 -0.78076601
-10.760057 4.9635887 -0.78076601
-10.674953 4.9681196 -0.78076601
-12.185477 4.9732037 -0.78076601
-11.823837 4.976192 -0.78076601
-11.276408 4.976769 -0.78076601
-11.104427 4.9789081 -0.78076601
-11.056996 4.976738 -0.78076601
-11.04423 4.9758101 -0.78076601
-10.780049 4.9705024 -0.78076601
-10.745977 4.977397 -0.78076601
-10.672591 4.9798532 -0.78076601
-10.471028 4.9754224 -0.78076601
-10.43441 4.9763904 -0.78076601
-8.2512398 4.9743714 -0.78391123
-8.1512403 4.9735036 -0.78181964
-11.901593 4.9883113 -0.78076601
-11.775374 4.9831672 -0.78076601
-11.554179 4.9872055 -0.78076601
-11.54072 4.9888425 -0.78076601
-10.970184 4.9861493 -0.78076601
-10.811946 4.9893312 -0.78076601
-10.713638 4.9858394 -0.78076601
-10.514193 4.9838176 -0.78076601
-12.210194 4.9963136 -0.78076595
-12.100326 4.996563 -0.78076601
-12.021314 4.9945569 -0.78076601
-11.935083 4.9953918 -0.78076601
-11.643312 4.9928951 -0.78076601
-11.234339 4.9929233 -0.78076601
-11.18163 4.9907928 -0.78076601
-10.919908 4.9998364 -0.78076601
-10.857221 4.9918947 -0.78076601
-10.553273 4.9907708 -0.78076601
-10.523033 4.9919162 -0.78076601
-12.08534 5.0090365 -0.78076601
-12.055361 5.0033145 -0.78076601
-11.839084 5.0005369 -0.78076601
-11.622232 5.0076566 -0.78076595
-11.573321 5.0043678 -0.78076601
-11.421657 5.0050874 -0.78076601
-11.339147 5.0032816 -0.78076601
-11.094246 5.0025764 -0.78076601
-11.066666 5.0050745 -0.78076601
-10.544731 5.0025702 -0.78076601
-12.258533 5.0162797 -0.78076601
-11.509744 5.0112758 -0.78076601
-11.210046 5.0185695 -0.78076601
-10.887219 5.0103035 -0.78076601
-10.864905 5.0196471 -0.78076601
-10.765759 5.010951 -0.78076601
-10.755198 5.0181322 -0.78076601
-12.051051 5.0212908 -0.78076601
-12.026021 5.0289087 -0.78076601
-11.824811 5.0220423 -0.78076601
-11.645646 5.0227137 -0.78076607
-11.402892 5.0268793 -0.78076607
-11.215569 5.0240188 -0.78076601
-10.939343 5.0292807 -0.78076601
-10.755356 5.0263238 -0.78076601
-10.734438 5.0269046 -0.78076601
-10.712208 5.022759 -0.78076601
-10.618972 5.0298414 -0.78076601
-10.532533 5.0218945 -0.78076601
-10.495501 5.0239344 -0.78076601
-12.107839 5.0390358 -0.78076601
-11.8394 5.0368285 -0.78076601
-11.623133 5.0333405 -0.78076607
-11.538471 5.0381699 -0.78076601
-11.30723 5.0304542 -0.78076601
-10.941887 5.0367284 -0.78076601
-10.880431 5.0300317 -0.78076601
-10.663713 5.0300651 -0.78076601
-10.624887 5.0371256 -0.78076601
-12.275822 5.0451403 -0.78076601
-12.166042 5.0473418 -0.78076601
-11.975587 5.0405273 -0.78076595
-11.684746 5.0482821 -0.78076607
-11.65546 5.0410347 -0.78076601
-11.455526 5.0441003 -0.78076601
-11.440184 5.0486512 -0.78076601
-10.913495 5.0416121 -0.78076601
-10.851072 5.0467944 -0.78076601
-10.594275 5.0479665 -0.78076601
-10.586823 5.0429893 -0.78076601
-10.513628 5.0428629 -0.78076601
-10.434271 5.0463591 -0.78076601
-8.2512398 5.0411348 -0.78504485
-11.852169 5.0514174 -0.78076601
-11.636838 5.0547109 -0.78076601
-12.285513 5.0635476 -0.78076601
-12.180252 5.0639133 -0.78076601
-12.069588 5.0672708 -0.78076601
-11.963825 5.0629892 -0.78076601
-11.924502 5.0610247 -0.78076607
-11.770735 5.0610652 -0.78076595
-11.323044 5.0656395 -0.78076601
-11.080752 5.0635409 -0.78076601
-11.052807 5.0603371 -0.78076601
-10.811161 5.0653863 -0.78076607
-10.420974 5.0688357 -0.78076601
-8.1512403 5.0606604 -0.78184986
-12.241655 5.0777583 -0.78076601
-12.084525 5.0713487 -0.78076601
-11.812636 5.073524 -0.78076601
-11.596164 5.0735006 -0.78076601
-11.532001 5.0772343 -0.78076601
-11.458102 5.0772204 -0.78076601
-10.657102 5.07655 -0.78076601
-10.41578 5.0719981 -0.78076601
-12.118113 5.0823431 -0.78076601
-11.995409 5.0810161 -0.78076601
-11.853293 5.0807462 -0.78076595
-11.707565 5.0809255 -0.78076601
-11.432499 5.0829539 -0.78076601
-11.00893 5.0856199 -0.78076601
-10.614717 5.0802965 -0.78076601
-12.27585 5.0957212 -0.78076601
-12.180729 5.0939746 -0.78076601
-12.178813 5.097085 -0.78076601
-12.109389 5.0952401 -0.78076607
-11.879379 5.0984797 -0.78076601
-11.844774 5.0986242 -0.78076601
-11.821394 5.0944662 -0.78076601
-11.761867 5.0920191 -0.78076601
-11.655966 5.091898 -0.78076601
-11.499859 5.0942001 -0.78076601
-11.384326 5.0979104 -0.78076601
-11.335267 5.0929813 -0.78076601
-11.266947 5.0931888 -0.78076601
-11.090477 5.0991006 -0.78076601
-11.074947 5.0905228 -0.78076601
-11.038 5.0988946 -0.78076601
-10.856232 5.0993309 -0.78076601
-10.83517 5.0920753 -0.78076601
-10.702435 5.09407 -0.78076601
-10.406204 5.0981545 -0.78076601
-12.055503 5.1051135 -0.78076601
-11.675615 5.1038933 -0.78076601
-11.034161 5.1078229 -0.78076601
-10.580847 5.1006598 -0.78076607
-10.427649 5.1044602 -0.78076601
-12.171065 5.1196728 -0.78076601
-12.139632 5.1159801 -0.78076601
-12.045441 5.1139145 -0.78076601
-11.74807 5.1118717 -0.78076595
-11.698791 5.115602 -0.78076601
-11.675402 5.1120625 -0.78076601
-11.591217 5.115406 -0.78076601
-11.38331 5.1178985 -0.78076601
-11.074659 5.111547 -0.78076601
-11.028169 5.1141167 -0.78076601
-10.776776 5.1139941 -0.78076601
-10.671512 5.119082 -0.78076601
-10.59425 5.1196132 -0.78076601
-10.405327 5.119175 -0.78076601
-12.26765 5.1275101 -0.78076601
-12.234476 5.1267939 -0.78076601
-12.21341 5.1226683 -0.78076601
-12.102004 5.1254582 -0.78076601
-11.978962 5.1206117 -0.78076601
-11.482178 5.1233234 -0.78076601
-11.374526 5.1272211 -0.78076601
-11.365006 5.1288967 -0.78076601
-11.303912 5.1277328 -0.78076601
-11.238138 5.1211619 -0.78076601
-10.960461 5.1236262 -0.78076601
-10.895376 5.1238112 -0.78076601
-10.823049 5.1223822 -0.78076601
-10.727647 5.1251011 -0.78076601
-10.706748 5.122684 -0.78076601
-10.642165 5.1289616 -0.78076601
-10.626588 5.1213646 -0.78076601
-10.550287 5.1290746 -0.78076601
-10.511075 5.126761 -0.78076601
-12.26406 5.1334376 -0.78076601
-12.166664 5.1320214 -0.78076601
-12.108726 5.132731 -0.78076601
-11.706005 5.1385317 -0.78076601
-11.580203 5.1369619 -0.78076601
-11.5722 5.1388555 -0.78076595
-11.563525 5.1313624 -0.78076601
-11.489506 5.1333375 -0.78076601
-11.332754 5.1324954 -0.78076601
-10.981236 5.1358724 -0.78076601
-10.932605 5.1320453 -0.78076601
-10.563023 5.1313386 -0.78076601
-10.498664 5.1350708 -0.78076601
-10.431499 5.1352768 -0.78076601
-12.239312 5.1415849 -0.78076601
-12.123111 5.1491423 -0.78076601
-12.069116 5.1452632 -0.78076601
-12.029834 5.1448059 -0.78076601
-12.00065 5.1479316 -0.78076601
-11.993694 5.1413627 -0.78076601
-11.665487 5.1402907 -0.78076601
-11.648139 5.1455693 -0.78076601
-11.625046 5.1485558 -0.78076601
-11.562133 5.1442275 -0.78076601
-11.548814 5.141222 -0.78076601
-11.492816 5.1420336 -0.78076601
-11.2967 5.1497974 -0.78076601
-11.209713 5.1412349 -0.78076601
-11.171111 5.1417212 -0.78076601
-11.130583 5.1498885 -0.78076601
-11.103356 5.1465178 -0.78076601
-10.800764 5.1485128 -0.78076601
-10.577431 5.1467967 -0.78076601
-10.4911 5.1450114 -0.78076601
-10.416036 5.142694 -0.78076601
-12.247969 5.1532669 -0.78076601
-12.234638 5.1502218 -0.78076601
-12.225543 5.1553187 -0.78076595
-11.978835 5.1588855 -0.78076601
-11.778994 5.1543889 -0.78076601
-11.645058 5.1573911 -0.78076601
-11.490269 5.1520896 -0.78076601
-11.474545 5.1518312 -0.78076601
-10.945481 5.1545768 -0.78076601
-10.929107 5.1557431 -0.78076601
-10.912091 5.1500931 -0.78076601
-10.878344 5.1577926 -0.78076601
-10.789795 5.155827 -0.78076601
-10.707075 5.1529403 -0.78076601
-10.475766 5.1566725 -0.78076601
-12.243192 5.1655526 -0.78076601
-11.982227 5.1682544 -0.78076601
-11.614479 5.1612434 -0.78076601
-11.445487 5.1672883 -0.78076601
-11.436068 5.1612453 -0.78076601
-11.153525 5.165628 -0.78076601
-10.809543 5.1674175 -0.78076601
-10.747108 5.1662135 -0.78076601
-10.737913 5.1664033 -0.78076601
-10.691317 5.1658063 -0.78076601
-10.556892 5.1634974 -0.78076601
-12.069551 5.1779571 -0.78076601
-11.927885 5.1704068 -0.78076601
-11.821333 5.1719289 -0.78076601
-11.331937 5.1714993 -0.78076601
-11.151014 5.1790328 -0.78076601
-10.957068 5.1700473 -0.78076601
-12.191746 5.1833959 -0.78076601
-12.051951 5.1894526 -0.78076601
-12.027415 5.1857347 -0.78076601
-12.0146 5.1881413 -0.78076601
-11.965809 5.1853461 -0.78076601
-11.868044 5.1859927 -0.78076601
-11.412277 5.1835613 -0.78076601
-11.286295 5.180109 -0.78076601
-10.955945 5.1817441 -0.78076601
-10.904788 5.1859412 -0.78076601
-10.892181 5.1853738 -0.78076601
-10.773827 5.1862655 -0.78076601
-10.746887 5.1887341 -0.78076601
-12.276508 5.1929126 -0.78076601
-12.260023 5.198256 -0.78076601
-12.049973 5.1911068 -0.78076601
-11.317062 5.1926107 -0.78076601
-10.924671 5.1910563 -0.78076601
-10.72544 5.1980453 -0.78076601
-10.699055 5.1982813 -0.78076601
-10.636023 5.1931324 -0.78076601
-12.202929 5.2033439 -0.78076601
-11.705129 5.2002492 -0.78076601
-11.662571 5.2055187 -0.78076601
-11.613714 5.2037368 -0.78076601
-11.526023 5.2011294 -0.78076601
-11.297284 5.2079716 -0.78076601
-11.260736 5.2022581 -0.78076601
-10.752752 5.2062259 -0.78076601
-10.716477 5.2000484 -0.78076601
-10.683026 5.2069974 -0.78076601
-12.043743 5.2153091 -0.78076601
-11.846132 5.2164555 -0.78076601
-11.748112 5.214685 -0.78076601
-11.601071 5.2185836 -0.78076595
-11.441756 5.2175422 -0.78076601
-11.237616 5.2186508 -0.78076601
-11.217781 5.2160392 -0.78076601
-11.101179 5.21135 -0.78076601
-11.05391 5.2126088 -0.78076601
-11.046571 5.2114377 -0.78076601
-10.946449 5.2180247 -0.78076601
-10.628966 5.2193699 -0.78076601
-10.571897 5.2153296 -0.78076601
-10.4659 5.2168417 -0.78076601
-12.053969 5.227694 -0.78076601
-11.979089 5.2224379 -0.78076601
-11.954043 5.2247772 -0.78076601
-11.703828 5.2263188 -0.78076601
-11.52201 5.227181 -0.78076601
-11.438242 5.2288733 -0.78076601
-11.351274 5.225131 -0.78076601
-11.316208 5.2212987 -0.78076601
-11.015428 5.2272525 -0.78076601
-10.827137 5.2231464 -0.78076601
-10.418237 5.2211051 -0.78076601
-12.106336 5.2333212 -0.78076601
-11.459935 5.2357173 -0.78076601
-11.410026 5.2350926 -0.78076595
-11.36157 5.2320781 -0.78076607
-11.255137 5.2368798 -0.78076601
-11.191525 5.2319345 -0.78076601
-11.063896 5.2335911 -0.78076601
-10.946459 5.2349529 -0.78076601
-10.657003 5.2302189 -0.78076601
-10.518907 5.2307105 -0.78076601
-10.501154 5.2343597 -0.78076601
-8.2504721 5.2519798 -0.78427243
-8.2062826 5.2519798 -0.78785104
-8.1704645 5.2519798 -0.78683287
-8.2132778 0.094166704 -0.77208608
-10.2512 0.11129367 -0.77430767
-10.2512 0.12687458 -0.77099085
-10.2512 0.14479485 -0.77329272
-10.1512 0.20821466 -0.77976
-10.2512 0.22462338 -0.77039361
-8.2512398 0.40918186 -0.77724743
-10.2512 0.51692337 -0.77935058
-8.1512403 0.5767743 -0.77723402
-10.2512 0.58789778 -0.77156842
-8.2512398 0.62007022 -0.7737599
-8.2512398 0.63012689 -0.77442712
-8.1512403 0.64779866 -0.77354497
-8.1512403 0.66815203 -0.77104867
-11.03307 0.68597585 -0.77795571
-8.1512403 0.69738424 -0.77771711
-11.087495 0.70513463 -0.77823019
-10.1512 0.70274711 -0.77981049
-11.090865 0.74407041 -0.7729426
-11.15749 0.77299726 -0.77245402
-11.091488 0.7736249 -0.77282023
-10.1512 0.77776998 -0.77632415
-8.1512403 0.78518629 -0.77935255
-11.164606 0.81082171 -0.77921057
-11.090472 0.81893498 -0.77647287
-11.079334 0.81020546 -0.77842772
-11.166872 0.84235775 -0.77663624
-11.081833 0.85115063 -0.77498233
-11.166811 0.87614352 -0.77883273
-8.1512403 0.88302922 -0.77434337
-11.170067 0.8930974 -0.773157
-11.167923 0.89911044 -0.77653587
-11.093673 0.8983708 -0.77309042
-11.158708 0.9074738 -0.77215976
-11.168579 0.94709271 -0.77628136
-11.168045 0.96914506 -0.77817559
-11.093503 0.98823655 -0.77671647
-8.1512403 0.98334253 -0.7781412
-8.1512403 0.99018139 -0.77235931
-11.176224 1.0268257 -0.77222967
-11.094801 1.0246253 -0.77561784
-10.1512 1.0606078 -0.77524537
-8.2512398 1.0669 -0.77702677
-11.139025 1.1086603 -0.7723859
-11.15033 1.1117518 -0.77897573
-11.11494 1.1149094 -0.77579594
-8.2512398 1.1346649 -0.77391106
-10.1512 1.1479111 -0.77229691
-11.095593 1.1617393 -0.77893168
-11.08786 1.1636069 -0.77449614
-11.151122 1.1731336 -0.77990162
-11.099648 1.1713731 -0.77128667
-8.2512398 1.1724361 -0.77943254
-11.097159 1.1903127 -0.77687967
-8.2512398 1.1964066 -0.77100247
-11.087214 1.2261566 -0.77806634
-10.1512 1.2542129 -0.77612513
-11.145202 1.3348126 -0.77684462
-11.114096 1.33539 -0.77342969
-11.092118 1.3494076 -0.77287209
-11.121427 1.4236691 -0.77904785
-11.105644 1.4886138 -0.77098954
-11.04408 1.4959086 -0.77104926
-8.1512403 1.5174983 -0.77658904
-8.1512403 1.5647852 -0.77446896
-8.2512398 1.6458757 -0.77979827
-10.2512 1.7882243 -0.77608985
-10.2512 1.7957641 -0.77288759
-8.1512403 1.8386672 -0.77729905
-8.1512403 1.9187115 -0.77884728
-10.1512 2.0494621 -0.77482802
-10.189681 2.05199 -0.77180678
-10.074514 2.05199 -0.77421522
-10.033821 2.05199 -0.77036619
-9.9486399 2.05199 -0.7709685
-9.7374611 2.05199 -0.77695382
-9.6374502 2.05199 -0.77421498
-9.4833136 2.05199 -0.77014709
-9.4170418 2.05199 -0.77576447
-8.8105316 2.05199 -0.77816397
-8.6999159 2.05199 -0.77569258
-8.4708977 2.05199 -0.77591467
-8.2512398 2.0741704 -0.77008867
-8.2512398 2.0929344 -0.7742669
-8.1512403 2.1211414 -0.77080774
-10.130127 2.1519899 -0.7759096
-9.9492254 2.1519899 -0.7767958
-9.5841274 2.1519899 -0.77930909
-9.5358057 2.1519899 -0.77216703
-9.042223 2.1519899 -0.77360129
-8.7838383 2.1519899 -0.7798152
-8.442399 2.1519899 -0.77923501
-9.3512297 2.1837785 -0.77384627
-9.3395271 2.2519901 -0.77906698
-9.3018332 2.2519901 -0.77270859
-9.2966442 2.2519901 -0.77725428
-10.05045 2.2869899 -0.77126652
-9.6279926 2.2869899 -0.77164966
-9.5301199 2.2869899 -0.77530748
-9.400425 2.2869899 -0.77105933
-9.3424721 2.2869899 -0.77856725
-8.2512398 2.2817602 -0.77154458
-8.1512403 2.3051119 -0.77666855
-10.040299 2.3269899 -0.77416348
-9.8557243 2.3269899 -0.77037156
-9.8269978 2.3269899 -0.77909428
-9.6959028 2.3269899 -0.7705425
-9.6421719 2.3269899 -0.77009791
-9.6365719 2.3269899 -0.77013963
-9.6135712 2.3269899 -0.7790553
-8.2512398 2.3524678 -0.77599561
-8.1512403 2.3632879 -0.77945089
-8.2512398 2.3775275 -0.77470291
-8.2512398 2.4185991 -0.77287376
-8.1512403 2.4627318 -0.77180231
-8.1512403 2.564249 -0.77260715
-8.2512398 2.7351766 -0.77629662
-8.2512398 2.7455831 -0.77412063
-8.1512403 2.7557762 -0.77117467
-8.2512398 2.8726995 -0.77906442
-8.1512403 2.8794494 -0.77348262
-8.2512398 2.8968301 -0.77689928
-8.2512398 2.9165688 -0.7714262
-8.2512398 2.9515517 -0.77019554
-9.3512297 3.0527711 -0.77245837
-9.3326674 3.05199 -0.77589536
-9.2949953 3.05199 -0.77386028
-9.2555313 3.0555692 -0.77331144
-9.3521576 3.0669899 -0.77702659
-8.1512403 3.0691633 -0.77425402
-8.1512403 3.116462 -0.77845418
-9.3512297 3.1326938 -0.77907687
-9.0446777 3.152 -0.77693766
-8.8882275 3.152 -0.77970278
-8.6261683 3.1519997 -0.77484637
-9.3079681 3.2520001 -0.77097136
-9.2544832 3.2520001 -0.77990991
-8.8096981 3.2520001 -0.7775476
-8.7713156 3.2520001 -0.77031976
-8.715766 3.2520001 -0.77865982
-8.1512403 3.2841187 -0.77517796
-8.2512398 3.3185062 -0.77074701
-8.2512398 3.3279328 -0.77883393
-8.1512403 3.3690617 -0.77779007
-8.2512398 3.5948598 -0.77025455
-8.2512398 3.6891 -0.77145356
-8.1512403 3.7363901 -0.7760433
-8.1512403 3.7844157 -0.77984053
-8.1512403 3.9096653 -0.77953422
-8.2512398 3.9191704 -0.77734756
-8.1512403 3.9152505 -0.77146649
-8.2512398 3.9318008 -0.77112436
-8.1512403 4.0381589 -0.77770066
-8.2512398 4.2128997 -0.77985156
-12.194773 4.2691708 -0.77928275
-12.216136 4.2713275 -0.77782255
-12.194734 4.2744575 -0.77570313
-12.140093 4.275053 -0.77529997
-12.03624 4.2825594 -0.77115053
-11.999379 4.3560057 -0.77523392
-12.279357 4.4537425 -0.77273035
-8.2512398 4.491715 -0.77552897
-8.2512398 4.5139856 -0.77137893
-8.1512403 4.5874314 -0.77112174
-12.006609 4.6399612 -0.77034301
-12.004497 4.6502481 -0.77177209
-12.278303 4.7422085 -0.77201575
-8.1512403 4.7869844 -0.77654964
-11.997338 4.79317 -0.77661395
-11.994695 4.8411636 -0.77840221
-11.992323 4.8899398 -0.77933002
-8.1512403 4.8987393 -0.77069867
-11.985111 4.9132309 -0.77880514
-8.2512398 4.921164 -0.77883488
-11.554976 4.9388528 -0.77949786
-11.3153 4.9386725 -0.77962017
-10.983718 4.9390616 -0.7793566
-10.613089 4.9385643 -0.77969313
-11.620127 4.9420595 -0.77732694
-11.499244 4.9420557 -0.77732927
-11.308919 4.9452 -0.77520066
-10.944836 4.9456758 -0.77487838
-10.865944 4.9419584 -0.77739501
-10.73616 4.9477234 -0.77349192
-10.663851 4.9407339 -0.77822429
-10.480661 4.9405932 -0.77831948
-11.932685 4.9520121 -0.77058822
-11.797077 4.9513359 -0.77104622
-11.530615 4.9511662 -0.77116084
-11.516192 4.9515529 -0.77089918
-11.0903 4.952765 -0.77007848
-10.591483 4.9523783 -0.77034038
-12.281866 5.0463181 -0.77443302
-10.405087 5.0411744 -0.77178675
-10.404419 5.0768471 -0.77582341
-12.277609 5.0983486 -0.7715441
-12.286777 5.1153097 -0.77776557
-8.2512398 5.1157231 -0.77392375
-12.276646 5.1234469 -0.77089107
-12.276766 5.1577182 -0.77097243
-11.974114 5.2211747 -0.77005798
-11.945216 5.2267437 -0.77382857
-11.502424 5.2299256 -0.77598315
-10.714379 5.227633 -0.77443069
-10.622511 5.2285266 -0.77503568
-10.452822 5.2213163 -0.77015406
-10.431069 5.2215114 -0.77028573
-12.151356 5.2337852 -0.77859604
-12.010324 5.2330856 -0.77812266
-11.803732 5.2330518 -0.77809954
-11.51904 5.233717 -0.77854979
-11.275096 5.2324023 -0.77765971
-11.193383 5.234776 -0.77926689
-10.874431 5.2341638 -0.77885258
-10.720572 5.2317548 -0.77722144
-10.632244 5.2324128 -0.77766711
-10.542313 5.2353992 -0.77968884
-10.415434 5.2308311 -0.77659589
-8.2062006 0.094166704 -0.76963204
-10.232305 0.10199 -0.76393932
-10.218118 0.10199 -0.76882708
-10.1512 0.23343503 -0.76995099
-10.1512 0.34042645 -0.76617074
-10.2512 0.41021186 -0.76614821
-8.2512398 0.44148374 -0.76756144
-8.1512403 0.44669634 -0.76735872
-10.1512 0.50549138 -0.76451409
-10.2512 0.61608744 -0.76012009
-8.2512398 0.61285168 -0.76270723
-10.1512 0.69731492 -0.76754081
-11.17042 0.74784815 -0.76540077
-10.2512 0.75432879 -0.76598281
-11.17335 0.79992461 -0.76149023
-11.17393 0.83558011 -0.76166636
-8.2512398 0.83450705 -0.76070046
-11.171474 0.87533391 -0.76771039
-11.09794 0.88166702 -0.76403403
-8.1512403 0.90079093 -0.76673484
-11.173487 0.93008024 -0.76596141
-11.167074 0.93667829 -0.76225585
-10.1512 0.93545228 -0.76363033
-11.173478 0.94321299 -0.7664566
-11.17421 0.96337241 -0.76668781
-10.1512 0.96782321 -0.76761323
-8.1512403 0.9655183 -0.76579142
-10.1512 0.99675691 -0.76527345
-8.1512403 1.0114481 -0.76403069
-11.101801 1.0227478 -0.76156044
-8.2512398 1.0278348 -0.7672224
-10.1512 1.0328751 -0.76899582
-10.2512 1.0853728 -0.76032138
-11.091261 1.0940441 -0.76521748
-11.145397 1.1088663 -0.76353204
-11.154563 1.1152685 -0.76372075
-11.155582 1.1225595 -0.7692886
-11.139383 1.1222137 -0.76110572
-11.153666 1.1406628 -0.76815462
-8.2512398 1.1657995 -0.76473898
-11.156049 1.1742564 -0.7628516
-11.122336 1.2031887 -0.7661469
-8.2512398 1.2147079 -0.76884574
-10.2512 1.2222393 -0.76088214
-8.2512398 1.2285658 -0.76717281
-11.102791 1.2511958 -0.76796371
-8.1512403 1.2574459 -0.76215971
-8.1512403 1.270398 -0.76749802
-11.097219 1.3148452 -0.76151091
-11.121704 1.3294513 -0.76331526
-11.133325 1.3316836 -0.76482713
-8.1512403 1.33627 -0.76755041
-11.154109 1.3403776 -0.76565087
-8.2512398 1.3677813 -0.76728994
-11.108124 1.379514 -0.76210815
-11.137497 1.3804244 -0.76058483
-8.2512398 1.393181 -0.76226372
-11.105399 1.4040328 -0.76839435
-11.131458 1.4234829 -0.76368457
-11.115577 1.4257116 -0.76276153
-10.2512 1.4268155 -0.76934242
-10.2512 1.440281 -0.76900899
-11.107409 1.4672984 -0.76672912
-10.2512 1.4735754 -0.76158047
-11.098491 1.4949033 -0.76584369
-10.1512 1.5545198 -0.76540452
-8.1512403 1.6765876 -0.76091981
-10.2512 1.743495 -0.76325941
-8.1512403 1.7458166 -0.76457715
-8.1512403 1.7864238 -0.76936382
-8.1512403 1.8292618 -0.76199746
-8.1512403 1.8958557 -0.76287282
-8.1512403 1.9009478 -0.76861256
-10.1512 1.9178462 -0.76760554
-8.1512403 1.9263366 -0.7633428
-10.1512 1.941533 -0.76194608
-10.2512 1.9564824 -0.76001209
-8.2512398 1.9878479 -0.76316315
-10.1512 2.0083246 -0.76602244
-10.1512 2.0283139 -0.76340324
-10.22513 2.05199 -0.7676608
-9.8230848 2.05199 -0.7621634
-9.7196894 2.05199 -0.76602525
-9.6182947 2.05199 -0.7662217
-9.3556995 2.05199 -0.76887959
-9.3476906 2.05199 -0.76539826
-9.0620699 2.05199 -0.76730049
-9.0215635 2.05199 -0.76234859
-8.8852329 2.05199 -0.76238328
-8.6787624 2.05199 -0.76956034
-8.2610865 2.05199 -0.76193196
-8.2512398 2.0569735 -0.76304525
-8.2512398 2.1088991 -0.76328981
-9.9509325 2.1519899 -0.76470679
-9.9011698 2.1519899 -0.76747024
-9.8973064 2.1519899 -0.76255739
-9.7928734 2.1519899 -0.76990616
-9.5310783 2.1519899 -0.76885128
-9.2916794 2.1519899 -0.76318663
-9.2743349 2.1519899 -0.76535738
-9.1471443 2.1519899 -0.76924139
-8.9237356 2.1519899 -0.76193798
-8.6933279 2.1519899 -0.76937491
-8.5468597 2.1519899 -0.76525122
-8.3948479 2.1519899 -0.76244313
-9.3512297 2.1680982 -0.76584888
-9.2489233 2.23699 -0.76030517
-9.3562498 2.2533803 -0.76038647
-9.3140612 2.2519901 -0.76087171
-10.019564 2.2869899 -0.76042527
-9.9981022 2.2869899 -0.76605076
-9.9660091 2.2869899 -0.7691946
-9.8968134 2.2869899 -0.76029474
-9.8674192 2.2869899 -0.76748419
-9.7000666 2.2869899 -0.76863205
-9.5300398 2.2869899 -0.76870114
-9.5121679 2.2869899 -0.76212084
-9.4855919 2.2869899 -0.76199222
-9.3817339 2.2869899 -0.76936823
-9.3490906 2.2869899 -0.76853353
-9.334898 2.2869899 -0.76780885
-9.9633379 2.3269899 -0.76421112
-9.8871984 2.3269899 -0.76264894
-9.7232504 2.3269899 -0.76023376
-9.6659298 2.3269899 -0.76126343
-8.1512403 2.4951847 -0.76677227
-8.2512398 2.5040829 -0.76982409
-8.1512403 2.7699435 -0.76852715
-8.1512403 2.7924871 -0.76903927
-8.2512398 2.8224878 -0.76994157
-8.1512403 2.8411937 -0.76146114
-8.2512398 2.964113 -0.76848149
-9.3512497 3.0513873 -0.7627148
-9.2606573 3.152 -0.76620346
-9.1959391 3.152 -0.76691192
-9.0204859 3.152 -0.76185381
-8.8763838 3.152 -0.76388943
-8.8490381 3.152 -0.76752543
-8.3403215 3.152 -0.76160884
-9.3512297 3.1939671 -0.76602983
-9.3512297 3.219887 -0.7679531
-9.3512297 3.2356241 -0.761536
-8.7309799 3.2520001 -0.76125515
-8.3809814 3.2519999 -0.76484263
-8.1512403 3.3646619 -0.76247197
-8.1512403 3.3824389 -0.76564735
-8.1512403 3.6245661 -0.76653171
-8.2512398 3.9375465 -0.76440018
-8.1512403 3.9932632 -0.76085979
-8.2512398 4.0067 -0.76590878
-8.1512403 4.0105305 -0.76700795
-8.1512403 4.2075977 -0.76618552
-8.2512398 4.2251906 -0.76696312
-12.226098 4.2875862 -0.76681429
-8.1512403 4.3074503 -0.76120132
-8.1512403 4.3347955 -0.76085657
-12.264465 4.4028296 -0.76262683
-8.1512403 4.4099226 -0.76597029
-8.2512398 4.4338489 -0.76647592
-8.1512403 4.4711018 -0.76155376
-12.007979 4.4975624 -0.7694158
-8.1512403 4.4997587 -0.76072943
-12.269942 4.5150032 -0.76634246
-8.1512403 4.5603547 -0.76938134
-12.273769 4.5729256 -0.76893932
-8.1512403 4.6040759 -0.76608831
-8.1512403 4.6330457 -0.76235896
-12.273673 4.6417184 -0.76887381
-12.269547 4.6644449 -0.7660749
-12.014689 4.7013988 -0.76487684
-8.1512403 4.701272 -0.76818973
-12.009191 4.7333865 -0.76859659
-8.1512403 4.777792 -0.76127839
-12.017281 4.7966151 -0.76312405
-12.26229 4.8050199 -0.76115024
