# .PCD v0.7 - Point Cloud Data file format
VERSION 0.7
FIELDS x y z
SIZE 4 4 4
TYPE F F F
COUNT 1 1 1
WIDTH 1491
HEIGHT 1
VIEWPOINT 0 0 0 1 0 0 0
POINTS 1491
DATA ascii
-11.632128 0.93342918 0.29134127
-11.555469 0.9339062 0.29159606
-11.55554 0.9377563 0.29224867
-11.030347 0.9374696 0.2907998
-11.632151 0.94081444 0.29111546
-11.622231 0.94275361 0.29122037
-11.632889 0.94603699 0.29238605
-11.030569 0.94946259 0.29120553
-11.08073 0.95722884 0.29447448
-11.607985 0.9625181 0.2908015
-11.030778 0.9607048 0.29333764
-11.030879 0.96617103 0.29028571
-11.081007 0.97210419 0.29046363
-11.623588 0.97954559 0.29255578
-11.608216 0.97504359 0.29313767
-11.556322 0.9798981 0.2909466
-11.081066 0.97529775 0.29168373
-11.031045 0.97512829 0.29164839
-11.633493 0.98163009 0.29227719
-11.624699 0.98125327 0.29469612
-11.031153 0.98097092 0.29382089
-11.556526 0.99080485 0.29064852
-11.634746 0.99693751 0.2941952
-11.622835 0.99529946 0.29049098
-11.081504 0.99889684 0.29251987
-11.031468 0.99796891 0.29181415
-11.556734 1.0020442 0.2924768
-11.031551 1.0024745 0.29111838
-11.556857 1.0086319 0.29321367
-11.081625 1.0055051 0.29176077
-11.623329 1.0118005 0.29086441
-11.556896 1.010751 0.29160807
-11.081799 1.01489 0.29129359
-11.557062 1.0197179 0.29107693
-11.081879 1.019124 0.29228705
-11.634268 1.0217336 0.29234171
-11.609074 1.0216068 0.29138583
-11.031884 1.0203944 0.29401314
-11.63366 1.027799 0.29091704
-11.032056 1.0296777 0.29040617
-11.634439 1.0324711 0.29228631
-11.082088 1.030483 0.29179472
-11.635477 1.0374234 0.29415995
-11.625589 1.0375804 0.29439324
-11.557417 1.0387415 0.29300863
-11.609446 1.0417147 0.29257974
-11.032282 1.0417982 0.29092756
-11.636093 1.0489447 0.29495925
-11.557588 1.0479765 0.29279143
-11.032347 1.045352 0.29472435
-11.635918 1.0534811 0.29444686
-11.557691 1.0535189 0.29099506
-11.609737 1.0575917 0.29163373
-11.032553 1.0565355 0.29066926
-11.609869 1.0647492 0.2933791
-11.634129 1.0697066 0.29030722
-11.625257 1.0658228 0.29270118
-11.636299 1.0714765 0.29454237
-11.6245 1.0755858 0.29084802
-11.610126 1.0786247 0.2935192
-11.558108 1.076058 0.29313567
-11.635288 1.0813723 0.29217729
-11.624764 1.0818251 0.29113978
-11.558241 1.0831585 0.29319984
-11.083059 1.0828245 0.29317206
-11.626107 1.0857185 0.29365629
-11.624359 1.088292 0.29010114
-11.610309 1.0885307 0.29321787
-11.558297 1.0861808 0.29352161
-11.636875 1.0932763 0.29488277
-11.033195 1.0911033 0.29263774
-11.558544 1.0994952 0.29094416
-11.626939 1.1074688 0.29450485
-11.610662 1.107733 0.29476237
-11.558685 1.1070881 0.29390472
-11.610771 1.1136892 0.2930057
-11.083632 1.1137933 0.29288536
-11.610845 1.1176443 0.29230678
-11.083663 1.1154399 0.29280907
-11.610939 1.1227218 0.29021519
-11.55895 1.1214044 0.29470176
-11.611029 1.1276529 0.29090357
-11.083927 1.1296991 0.29320776
-11.611141 1.1336734 0.29224023
-11.083984 1.1328106 0.29344922
-11.635773 1.1379758 0.29106122
-11.625194 1.1359475 0.29000756
-11.559258 1.1379403 0.29233781
-11.611261 1.140249 0.29098439
-11.034101 1.1400982 0.29093325
-11.084297 1.1496298 0.29286602
-11.034243 1.1476642 0.29456526
-11.626883 1.1510192 0.29279712
-11.611489 1.1526127 0.29425746
-11.638011 1.1564063 0.29481992
-11.626506 1.1562078 0.29186431
-11.637614 1.1645095 0.29373696
-11.628166 1.16176 0.29494762
-11.611664 1.1620786 0.29131824
-11.08457 1.1643716 0.29488993
-11.611742 1.1663512 0.29098272
-11.637432 1.1739315 0.29302931
-11.611829 1.1710303 0.29226249
-11.559877 1.1712097 0.29215151
-11.626949 1.1781646 0.29193854
-11.560098 1.1831071 0.29180044
-11.084879 1.1810706 0.29247534
-11.034928 1.1846391 0.29184756
-11.636387 1.1885691 0.29042649
-11.62626 1.187129 0.2902438
-11.56015 1.185933 0.292611
-11.084953 1.1850195 0.2929194
-11.085071 1.1914001 0.29321405
-11.637107 1.1953975 0.29160058
-11.085169 1.1966531 0.29102492
-11.03521 1.1998436 0.29151136
-11.636912 1.2020469 0.29097107
-11.612437 1.204025 0.29130042
-11.035246 1.2017702 0.2919367
-11.63861 1.2091436 0.2940737
-11.560572 1.2086399 0.29373106
-11.085379 1.2080212 0.29208463
-11.637927 1.2114596 0.29263529
-11.560684 1.214679 0.29461032
-11.035477 1.2142314 0.29018855
-11.638851 1.222486 0.29406184
-11.035603 1.2210262 0.29098183
-11.61287 1.2275242 0.2932778
-11.560883 1.2253573 0.29056144
-11.085787 1.2299932 0.29314709
-11.639326 1.2345432 0.29455915
-11.629315 1.2305646 0.29470119
-11.612953 1.231982 0.29055956
-11.613033 1.2363826 0.29040828
-11.085888 1.2354202 0.29316959
-11.638314 1.2422776 0.29227412
-11.629 1.2410035 0.29369524
-11.086036 1.2434397 0.29034871
-11.036102 1.2479458 0.29052073
-11.613346 1.2532829 0.29236227
-11.086223 1.2535295 0.29220146
-11.036144 1.2502558 0.29476643
-11.638403 1.2554109 0.29196692
-11.613409 1.2567301 0.29226917
-11.628477 1.2605004 0.29194614
-11.561602 1.2641243 0.29035568
-11.628862 1.2667774 0.29247814
-11.613638 1.2691631 0.29380941
-11.036461 1.2673821 0.29369828
-11.561796 1.2745013 0.29009029
-11.08659 1.2733092 0.29250163
-11.638079 1.2779362 0.29050165
-11.613811 1.2785364 0.2925289
-11.561842 1.2770529 0.29271621
-11.086676 1.2779417 0.2925759
-11.640154 1.2897305 0.2941781
-11.638645 1.2889106 0.2912195
-11.562014 1.2862684 0.29428798
-11.639 1.2921736 0.29180229
-11.562143 1.2932293 0.2904948
-11.086968 1.2937914 0.29060832
-11.036926 1.2924787 0.29216522
-11.614151 1.2970624 0.293423
-11.087033 1.2972848 0.2909604
-11.562313 1.3023551 0.29212576
-11.037118 1.3027936 0.29071563
-11.639875 1.3072964 0.29298174
-11.614349 1.3077753 0.29008132
-11.087204 1.3064657 0.29221922
-11.639546 1.3140348 0.2920835
-11.614398 1.3104173 0.29193968
-11.562535 1.3143735 0.29406339
-11.037406 1.31831 0.29174507
-11.630085 1.3249371 0.29276863
-11.639794 1.3287307 0.29203746
-11.037611 1.3294327 0.29366449
-11.037704 1.3343996 0.29104668
-11.641221 1.3390779 0.29448298
-11.087778 1.3375282 0.29204163
-11.630392 1.3426143 0.29272798
-11.615126 1.3498443 0.29143742
-11.037987 1.3496156 0.29380578
-11.641637 1.359674 0.29455435
-11.615243 1.3562531 0.29016703
-11.088168 1.3585223 0.29217002
-11.038169 1.3594428 0.29094896
-11.63103 1.3614384 0.29330352
-11.615352 1.3621502 0.29383075
-11.088255 1.3632034 0.29142162
-11.615484 1.3693109 0.2932992
-11.03831 1.367094 0.29491359
-11.640963 1.3704851 0.29282019
-11.615578 1.3743949 0.29442683
-11.629803 1.3795651 0.29021019
-11.615639 1.3777503 0.29453704
-11.088534 1.378258 0.29227406
-11.038494 1.3770275 0.29265743
-11.640826 1.3843815 0.292041
-11.632113 1.3830259 0.29465494
-11.630854 1.3877708 0.29198706
-11.640089 1.3938488 0.29023442
-11.615945 1.3943245 0.29007801
-11.563992 1.3927493 0.29007483
-11.641483 1.3971808 0.29287213
-11.64191 1.4058464 0.2933996
-11.03908 1.4086299 0.29107347
-11.641682 1.4126087 0.29269907
-11.64055 1.4190607 0.29022083
-11.64075 1.4238149 0.29045317
-11.640629 1.4251462 0.29015744
-11.616516 1.4253471 0.29237998
-11.089441 1.4271643 0.29247084
-11.039442 1.4282031 0.29265761
-11.630884 1.43232 0.29041153
-11.564713 1.4315968 0.29226893
-11.613957 1.4353608 0.29074836
-11.605998 1.435508 0.2927931
-11.602729 1.4355683 0.29416952
-11.59024 1.4357994 0.29418853
-11.554071 1.4364682 0.29195333
-11.547174 1.4365959 0.29227179
-11.525323 1.437 0.2938925
-11.523486 1.437034 0.29243207
-11.518133 1.4371331 0.29272446
-11.499937 1.4374696 0.29142833
-11.488624 1.4376788 0.29241312
-11.462022 1.4381709 0.29248744
-11.457798 1.4382489 0.29466045
-11.445444 1.4384774 0.29301986
-11.438394 1.4386079 0.29373869
-11.432503 1.4387169 0.29172862
-11.400523 1.4393083 0.29270253
-11.397726 1.43936 0.29254949
-11.386732 1.4395634 0.29089478
-11.380568 1.4396774 0.2909078
-11.372206 1.4398321 0.29380062
-11.643028 1.4419807 0.29430467
-11.632137 1.4428648 0.2925064
-11.362651 1.4400088 0.29017094
-11.32065 1.4407855 0.29284626
-11.313695 1.4409142 0.2918621
-11.30504 1.4410743 0.29109755
-11.293165 1.441294 0.29166773
-11.288154 1.4413867 0.29323605
-11.267912 1.4417609 0.29370177
-11.246125 1.4421639 0.29215813
-11.241765 1.4422445 0.2919732
-11.224047 1.4425724 0.29212227
-11.19883 1.4430386 0.29388332
-11.176748 1.443447 0.29075223
-11.149058 1.4439592 0.29302955
-11.144577 1.4440421 0.29369313
-11.096675 1.4449281 0.29259637
-11.088572 1.4450779 0.29309434
-11.083582 1.4466556 0.29095364
-11.077403 1.4467704 0.29341045
-11.072664 1.4468588 0.2939803
-11.068861 1.4461859 0.29315889
-11.061639 1.4463199 0.29428464
-11.051791 1.4472469 0.29273817
-11.040665 1.4459639 0.29380363
-11.643322 1.4515135 0.29453817
-11.632353 1.4503278 0.29266182
-11.631396 1.4604105 0.29039958
-11.632804 1.4704406 0.2928212
-11.040319 1.474844 0.29430008
-11.643647 1.4805056 0.29411614
-11.636633 1.4849416 0.29172647
-11.617664 1.4835076 0.29144198
-11.040481 1.4837935 0.29206365
-11.642094 1.4873372 0.29078725
-11.626454 1.4851316 0.29148674
-11.620689 1.4852382 0.29339465
-11.61657 1.4853209 0.29229149
-11.613565 1.4853702 0.29176486
-11.60796 1.4854739 0.29430562
-11.600465 1.4856125 0.29103446
-11.567774 1.4862232 0.29126728
-11.564488 1.4862782 0.29431692
-11.551312 1.486522 0.29238054
-11.543317 1.48667 0.29337153
-11.533913 1.4868439 0.29229966
-11.515738 1.4871855 0.29165229
-11.513003 1.4872326 0.29331478
-11.491598 1.4876268 0.29274428
-11.485409 1.4877414 0.29265404
-11.483378 1.4877813 0.29262874
-11.467807 1.4880704 0.29396367
-11.462973 1.4881567 0.2904191
-11.444422 1.4885043 0.29392394
-11.430972 1.4887531 0.29493147
-11.408219 1.4891725 0.29293784
-11.401445 1.4892991 0.29172558
-11.392789 1.4894552 0.29211584
-11.388444 1.4895394 0.29352543
-11.382584 1.489646 0.2946898
-11.376532 1.489756 0.29324538
-11.374889 1.4897901 0.29209667
-11.368147 1.4899148 0.29457191
-11.363635 1.4899981 0.29288107
-11.040568 1.4886984 0.29102606
-11.639287 1.4948978 0.29294154
-11.357435 1.4901128 0.2904585
-11.353798 1.4901783 0.2928668
-11.345525 1.4903331 0.2939831
-11.320508 1.4907957 0.29017597
-11.31554 1.490886 0.2912814
-11.312007 1.4909514 0.29294685
-11.302954 1.4911175 0.29106528
-11.290263 1.4913551 0.29045981
-11.287846 1.4913998 0.29405794
-11.278803 1.4915644 0.29058215
-11.242781 1.492232 0.29216534
-11.230161 1.4924664 0.29161054
-11.228348 1.4924999 0.29354942
-11.220942 1.4926349 0.29238322
-11.217253 1.4927051 0.29309452
-11.20018 1.4930191 0.29473051
-11.195935 1.4930985 0.2922172
-11.190622 1.493196 0.29191455
-11.17251 1.4935315 0.2929517
-11.16503 1.4936694 0.29345861
-11.164969 1.4936707 0.29260254
-11.153636 1.4938816 0.29367048
-11.145986 1.494023 0.29484951
-11.143043 1.4940774 0.29135206
-11.131142 1.4942975 0.29225254
-11.118103 1.4945383 0.29232389
-11.112446 1.4946432 0.2903727
-11.107045 1.4947429 0.2922613
-11.040682 1.494945 0.29077768
-11.633146 1.4950114 0.29039204
-11.628154 1.4951037 0.29418263
-11.610403 1.4954323 0.29213944
-11.597938 1.495663 0.2924321
-11.58014 1.4959922 0.29311541
-11.565609 1.4962611 0.29346353
-11.56489 1.4962744 0.29085264
-11.557309 1.4964147 0.29242915
-11.537706 1.4967775 0.29100376
-11.525739 1.4969989 0.29280314
-11.520456 1.4970967 0.29052874
-11.519044 1.4971229 0.29130754
-11.514945 1.4971985 0.2916826
-11.507921 1.4973285 0.29488066
-11.501111 1.4974545 0.2922453
-11.499077 1.4974923 0.29472622
-11.481658 1.4978145 0.29145616
-11.473749 1.4979608 0.29490292
-11.462296 1.4981728 0.29217485
-11.443413 1.4985222 0.29018715
-11.412298 1.4990978 0.29176897
-11.407912 1.4991791 0.29040235
-11.398741 1.4993489 0.29007304
-11.366568 1.499944 0.29192811
-11.091026 1.4950393 0.29129398
-11.088907 1.4950786 0.2949475
-11.081186 1.4952211 0.29112333
-11.076399 1.4953096 0.29128414
-11.070488 1.4954193 0.29471576
-11.069954 1.4954288 0.29162779
-11.056498 1.4956779 0.29463488
-11.045952 1.495873 0.29214293
-11.349861 1.5002532 0.29337215
-11.342369 1.500392 0.29095018
-11.332235 1.5005792 0.29299399
-11.29173 1.5013289 0.2901336
-11.27879 1.5015683 0.29280341
-11.272476 1.501685 0.29305857
-11.269708 1.5017364 0.29115015
-11.262328 1.5018729 0.29253787
-11.25751 1.5019621 0.29076454
-11.247867 1.5021404 0.29227254
-11.207527 1.5028868 0.29082203
-11.198382 1.503056 0.29453152
-11.173087 1.5035242 0.29031774
-11.14565 1.5040317 0.2936129
-11.134239 1.5042429 0.2939803
-11.115413 1.5045912 0.29218024
-11.107996 1.5047286 0.29322261
-11.102004 1.5048394 0.29178801
-11.0984 1.5049061 0.29132357
-11.04087 1.504431 0.29117203
-11.056974 1.5056727 0.29318658
-11.631153 0.67745656 0.2988185
-11.62001 0.67511714 0.29934368
-11.593266 0.67561209 0.29780677
-11.577081 0.67591155 0.29592264
-11.555139 0.67631745 0.29659957
-11.547832 0.67645282 0.29788581
-11.512178 0.67711246 0.29960629
-11.507823 0.67719305 0.29677424
-11.486875 0.67758065 0.29709384
-11.476339 0.67777562 0.2950944
-11.460654 0.67806578 0.29634291
-11.458405 0.67810744 0.29879904
-11.446388 0.67832983 0.29880574
-11.44282 0.67839587 0.29987457
-11.433722 0.67856419 0.29829746
-11.427836 0.67867309 0.29693198
-11.424316 0.67873818 0.29798913
-11.388943 0.6793927 0.29632196
-11.366033 0.6798166 0.29956207
-11.337334 0.68034762 0.29574984
-11.293091 0.68116629 0.29576802
-11.276981 0.68146443 0.29619527
-11.230869 0.68231761 0.295463
-11.219141 0.68253469 0.29907197
-11.199511 0.68289787 0.29706651
-11.173962 0.68337059 0.29690328
-11.169028 0.6834619 0.29882941
-11.161848 0.68359476 0.29843995
-11.12921 0.68419874 0.29806691
-11.117271 0.68441957 0.29676253
-11.614441 0.68522185 0.29806918
-11.602839 0.68733978 0.29904464
-11.591376 0.68562937 0.29561412
-11.586566 0.68571842 0.29606271
-11.582399 0.6858052 0.29684746
-11.575912 0.68591547 0.295084
-11.56259 0.68616199 0.29838723
-11.555761 0.68628836 0.29849795
-11.552726 0.68636376 0.2962409
-11.549753 0.68639946 0.29621705
-11.537478 0.68664587 0.29752845
-11.532199 0.68673396 0.29783708
-11.528258 0.68680686 0.29976672
-11.518627 0.68698508 0.29747319
-11.507024 0.68719006 0.29518431
-11.493403 0.687455 0.29780027
-11.488945 0.68754387 0.29506707
-11.482916 0.68764579 0.29736859
-11.472687 0.68782538 0.29688931
-11.468503 0.68792206 0.29957199
-11.461092 0.68803996 0.29675919
-11.456935 0.68812972 0.29734108
-11.451007 0.68822652 0.29527631
-11.448222 0.68827808 0.29817754
-11.43749 0.68847662 0.29895562
-11.43292 0.68857086 0.29870301
-11.426309 0.6887027 0.29761419
-11.416569 0.68887329 0.29553542
-11.402111 0.68913764 0.29821351
-11.398295 0.68921149 0.2980575
-11.39213 0.68933505 0.29742232
-11.385786 0.68945241 0.2999343
-11.383754 0.68949008 0.29823157
-11.080714 0.68509603 0.29651976
-11.051172 0.68564266 0.29559255
-11.044346 0.68576902 0.29796481
-11.036365 0.68591666 0.29592001
-11.619722 0.69252306 0.29541922
-11.353066 0.69005781 0.29613829
-11.347987 0.69013262 0.29918522
-11.338886 0.69031066 0.29862964
-11.329453 0.69047552 0.29600209
-11.317131 0.69070351 0.29668856
-11.311683 0.6908043 0.29543081
-11.309006 0.69087303 0.29728475
-11.304674 0.69093406 0.29706511
-11.280379 0.69140273 0.29883912
-11.269814 0.69157904 0.29908851
-11.257971 0.69179809 0.29823112
-11.252621 0.69190669 0.29734945
-11.242743 0.6920799 0.29684982
-11.227538 0.69236761 0.29818836
-11.216389 0.69257712 0.29780224
-11.213703 0.69263637 0.29646093
-11.192417 0.69301105 0.29816875
-11.188799 0.69309705 0.29739964
-11.180779 0.69324547 0.29589194
-11.178712 0.69328374 0.29563886
-11.168032 0.69346225 0.29870266
-11.163459 0.69355959 0.29751596
-11.137552 0.69402623 0.29772463
-11.127439 0.69421327 0.29694474
-11.118604 0.69438636 0.29739875
-11.110027 0.69453549 0.29992902
-11.108833 0.69457662 0.29665613
-11.099462 0.69475001 0.29676744
-11.090629 0.69491339 0.29543918
-11.089118 0.69492233 0.29939893
-11.621031 0.69883394 0.29777685
-11.079478 0.69510067 0.29648656
-11.072852 0.69522971 0.29581884
-11.062737 0.69541043 0.29980752
-11.049922 0.69566655 0.29614624
-11.038868 0.69587111 0.29786029
-11.026796 0.69607544 0.29835606
-11.603152 0.70297438 0.29746339
-11.026052 0.70461237 0.29784462
-11.603391 0.71495229 0.29856914
-11.026153 0.71017557 0.29932538
-11.620724 0.7167443 0.29650733
-11.631805 0.72101521 0.29849112
-11.621809 0.72127807 0.2984865
-11.026379 0.72266459 0.29853109
-11.603683 0.72963166 0.29691762
-11.603769 0.73386824 0.29543102
-11.632704 0.7397486 0.29957706
-11.622241 0.73969376 0.29867569
-11.603857 0.73851061 0.29782146
-11.592981 0.73562813 0.29774278
-11.587026 0.73573828 0.29917365
-11.573806 0.73598278 0.29616249
-11.552588 0.73637646 0.29875916
-11.518005 0.73701495 0.2977992
-11.51325 0.73710293 0.29624134
-11.503611 0.73728126 0.29673362
-11.489824 0.73753619 0.29933652
-11.475359 0.73780382 0.29642236
-11.465485 0.73798645 0.29906592
-11.451474 0.73824567 0.29737771
-11.423361 0.73876566 0.2969875
-11.409847 0.73901564 0.29791576
-11.398138 0.73923218 0.29914656
-11.387012 0.739438 0.29993361
-11.378201 0.73960102 0.296783
-11.362585 0.73988986 0.29605454
-11.026662 0.73839086 0.29919034
-11.630694 0.74123269 0.29554108
-11.603891 0.74038768 0.29629344
-11.551884 0.74089754 0.29737717
-11.354027 0.74004817 0.29984355
-11.299434 0.74105799 0.29571187
-11.291286 0.74120867 0.29870901
-11.274427 0.74152052 0.29609776
-11.261513 0.74175942 0.29656461
-11.236688 0.74221861 0.29805595
-11.222091 0.74248856 0.29801947
-11.208085 0.74274772 0.29660648
-11.187048 0.74313688 0.29894274
-11.157635 0.74368095 0.29670063
-11.1486 0.74384809 0.2967729
-11.13811 0.74404204 0.2957975
-11.127098 0.74424577 0.297212
-11.112206 0.74452126 0.2979601
-11.102451 0.74470162 0.29900929
-11.026718 0.74157315 0.29741085
-11.552009 0.74760467 0.29850692
-11.081085 0.7450968 0.2954042
-11.075001 0.7452094 0.29784092
-11.067916 0.74534357 0.29687256
-11.062357 0.7454465 0.2977834
-11.054066 0.74559665 0.29998088
-11.046928 0.74573225 0.29765242
-11.032256 0.74600267 0.29684642
-11.60415 0.7544204 0.29589507
-11.552082 0.75155735 0.29521206
-11.076956 0.75357127 0.29924542
-11.604223 0.75838435 0.29682463
-11.027002 0.75701952 0.29613626
-11.632975 0.76028317 0.29935953
-11.621085 0.76383781 0.29550451
-11.552287 0.76264042 0.29759845
-11.077141 0.76355863 0.29969001
-11.027146 0.76476079 0.29681849
-11.604349 0.76518691 0.29801542
-11.077206 0.76701963 0.29830405
-11.604458 0.77113521 0.29812866
-11.027306 0.77331877 0.29678908
-11.623087 0.77858925 0.2989271
-11.027422 0.77959812 0.29873139
-11.60465 0.78159612 0.29569376
-11.077505 0.7832253 0.29890895
-11.633156 0.78657293 0.29875499
-11.621903 0.78638929 0.29629654
-11.604774 0.78835863 0.29567116
-11.552792 0.78976405 0.29960573
-11.027533 0.78566349 0.29792356
-11.633677 0.79457307 0.29949531
-11.604863 0.79314673 0.29933992
-11.552864 0.79367232 0.29843968
-11.077723 0.79498017 0.29714978
-11.027685 0.79385525 0.29566747
-11.622546 0.79727536 0.29717115
-11.604984 0.79969782 0.29808626
-11.077808 0.79957825 0.29981896
-11.077852 0.80195284 0.29677159
-11.633072 0.80651814 0.29785556
-11.622581 0.80618954 0.29691398
-11.605157 0.80904281 0.29570004
-11.077947 0.80699658 0.29539758
-11.632556 0.81326294 0.29659051
-11.605217 0.81237876 0.2999278
-11.078054 0.81282699 0.2963571
-11.028027 0.81230438 0.29633576
-11.634133 0.81936502 0.29949003
-11.078171 0.81914425 0.29985875
-11.02813 0.81782746 0.29620963
-11.633284 0.8203876 0.29776812
-11.605434 0.82409275 0.29668358
-11.553352 0.82000154 0.29659134
-11.605523 0.82889396 0.29989395
-11.55345 0.82516348 0.29915911
-11.622442 0.83198518 0.29569435
-11.623617 0.83994079 0.29772916
-11.553644 0.83570457 0.29816562
-11.078526 0.83828008 0.29992235
-11.632653 0.84119403 0.2957606
-11.553766 0.84228742 0.29822409
-11.553888 0.84883416 0.29669803
-11.606045 0.85721672 0.2992996
-11.554053 0.85773802 0.29919577
-11.028906 0.85971665 0.29867828
-11.635201 0.86456746 0.29994699
-11.632997 0.86018503 0.29574376
-11.554173 0.86408782 0.29914036
-11.079082 0.86828387 0.29539409
-11.633484 0.87043071 0.29633197
-11.554324 0.87227809 0.29502919
-11.029175 0.87421417 0.29835457
-11.63468 0.87732244 0.29844746
-11.554472 0.88023239 0.29590851
-11.079321 0.88119352 0.29933295
-11.624343 0.88677967 0.29744935
-11.6066 0.88732827 0.29862162
-11.5547 0.89248991 0.29754549
-11.079533 0.8925972 0.29690021
-11.634616 0.89966756 0.29750368
-11.624739 0.89673615 0.29786932
-11.029612 0.89781141 0.29610234
-11.634508 0.90040684 0.29726303
-11.6069 0.9036454 0.29539856
-11.633921 0.90652573 0.29587507
-11.624362 0.91206312 0.29656172
-11.079909 0.91291195 0.29577306
-11.625793 0.91956902 0.29912016
-11.624657 0.9198277 0.29686171
-11.555151 0.91681975 0.29610661
-11.607266 0.92347813 0.29659253
-11.555229 0.92102134 0.29998213
-11.030058 0.92186654 0.29769701
-11.635647 0.92709291 0.29854131
-11.62494 0.93218648 0.29696736
-11.555462 0.93354738 0.29951856
-11.080312 0.93464434 0.29736036
-11.55554 0.93771875 0.29830566
-11.636539 0.94192362 0.29976055
-11.555641 0.94322181 0.29692614
-11.634516 0.9473775 0.29555699
-11.626489 0.94706416 0.29948872
-11.607742 0.94929874 0.29976779
-11.634303 0.950791 0.29501078
-11.607783 0.95152026 0.29775119
-11.636496 0.95803416 0.2990866
-11.626701 0.95679957 0.29955307
-11.080746 0.9580586 0.29810929
-11.635473 0.96151304 0.29693431
-11.030844 0.96426123 0.29892874
-11.63516 0.96550864 0.29616636
-11.608055 0.96635002 0.29735231
-11.556054 0.96539664 0.29787207
-11.030932 0.96903723 0.29726899
-11.626154 0.97061312 0.29796255
-11.608177 0.97294635 0.29860747
-11.081024 0.97309607 0.29694828
-11.030963 0.9707045 0.29625133
-11.636212 0.97580618 0.29787356
-11.081219 0.9835856 0.29606473
-11.031153 0.9809199 0.29546005
-11.636629 0.99342805 0.29805282
-11.556533 0.99123859 0.29542312
-11.081471 0.99719226 0.29823968
-11.081604 1.0043557 0.2974079
-11.031515 1.0005047 0.29525775
-11.63633 1.0137981 0.2967163
-11.0818 1.0149071 0.299741
-11.031758 1.0135984 0.29907647
-11.636547 1.0160003 0.29706368
-11.608974 1.0161885 0.29903308
-11.55703 1.0179355 0.29619363
-11.609066 1.0211524 0.29750678
-11.55714 1.0238922 0.29986483
-11.625876 1.0273038 0.29533809
-11.557192 1.0266538 0.29904765
-11.637199 1.0346241 0.29767513
-11.627022 1.0322053 0.29742783
-11.557283 1.0315822 0.29787204
-11.636538 1.0352311 0.29634154
-11.557356 1.0355031 0.29715264
-11.082207 1.0368745 0.29645169
-11.082355 1.0448707 0.29636317
-11.032262 1.0407671 0.29639375
-11.636482 1.0491676 0.29572171
-11.03237 1.046581 0.29740086
-11.638197 1.0503016 0.29907513
-11.626986 1.0537655 0.29656386
-11.60969 1.0549397 0.29977092
-11.082497 1.052527 0.29882747
-11.557791 1.0588936 0.29870564
-11.082595 1.0578053 0.29737556
-11.0326 1.0590279 0.29835939
-11.082693 1.0630883 0.29921129
-11.62678 1.0660329 0.29570764
-11.637253 1.0725302 0.29639208
-11.638584 1.0786585 0.29880276
-11.628582 1.0796852 0.29877576
-11.032974 1.0792418 0.29853177
-11.558229 1.0825423 0.29854721
-11.083036 1.0816141 0.29791069
-11.638186 1.0862336 0.2977336
-11.610258 1.0857787 0.29998249
-11.558301 1.086381 0.29759532
-11.639481 1.0989226 0.29983476
-11.083347 1.0983931 0.29717779
-11.55862 1.1035881 0.29771703
-11.62798 1.1072419 0.2965762
-11.610684 1.1089211 0.29583603
-11.55873 1.1094857 0.29699609
-11.629351 1.1116527 0.29912627
-11.628966 1.1167536 0.29817784
-11.03371 1.1188905 0.29849887
-11.63843 1.1207826 0.29695356
-11.628748 1.1208133 0.29759914
-11.610966 1.1242313 0.29833612
-11.558935 1.1205016 0.29669911
-11.083767 1.121069 0.29700428
-11.630013 1.1267116 0.29988521
-11.083898 1.1281009 0.29731873
-11.640053 1.1342188 0.29967576
-11.61115 1.1341697 0.29737908
-11.559198 1.1346653 0.29870579
-11.629598 1.1366795 0.29869926
-11.637964 1.1441759 0.29517585
-11.628716 1.1400235 0.29683173
-11.084196 1.1441467 0.29999542
-11.034169 1.1436831 0.2965903
-11.639197 1.1469245 0.29751629
-11.628932 1.1467966 0.29700965
-11.630444 1.1530153 0.29977468
-11.628771 1.154103 0.29642394
-11.559489 1.1503842 0.29978818
-11.638259 1.1553785 0.29534689
-11.628162 1.1558267 0.29515424
-11.559586 1.1555235 0.29534775
-11.62899 1.1601732 0.29663444
-11.611639 1.1607226 0.29987153
-11.559736 1.1636702 0.29835188
-11.034487 1.1607995 0.29933152
-11.639262 1.1680119 0.29687056
-11.611744 1.1663442 0.29897547
-11.559877 1.1711978 0.29777381
-11.640602 1.1784806 0.29914108
-11.639398 1.1773477 0.29679638
-11.630283 1.1772555 0.29857025
-11.034777 1.1765151 0.29760349
-11.628874 1.1837286 0.29554325
-11.034925 1.184412 0.29883775
-11.639474 1.1860445 0.29663026
-11.612091 1.1852356 0.29897714
-11.085001 1.1876125 0.29594213
-11.034983 1.1875923 0.29916826
-11.612235 1.193056 0.29714131
-11.035079 1.1927493 0.29675537
-11.641314 1.197607 0.29984716
-11.612295 1.1963047 0.29879028
-11.085182 1.1973737 0.29569167
-11.639475 1.2012295 0.29607505
-11.612429 1.2035428 0.29707509
-11.560457 1.2024614 0.29815471
-11.035262 1.2026649 0.29903233
-11.640546 1.2097235 0.29788679
-11.612483 1.2065339 0.29765832
-11.085354 1.2066898 0.29755235
-11.640934 1.213728 0.29850656
-11.639877 1.2105733 0.29653114
-11.560613 1.2108457 0.2970497
-11.085484 1.2136351 0.29677731
-11.639327 1.2198472 0.29510072
-11.560753 1.2184018 0.29510331
-11.629886 1.2244797 0.29605269
-11.629634 1.2277098 0.29543638
-11.035743 1.2286179 0.29945374
-11.641597 1.2334694 0.29909447
-11.6399 1.2374673 0.29559061
-11.631497 1.2400515 0.29867291
-11.613121 1.2411362 0.2996074
-11.086056 1.2445099 0.29539454
-11.631226 1.2482488 0.29783452
-11.613238 1.2474624 0.29666001
-11.631937 1.2502117 0.29917166
-11.613414 1.2570471 0.29902127
-11.561462 1.2566103 0.29818705
-11.086293 1.2573617 0.29688823
-11.642439 1.2635468 0.29966074
-11.630241 1.2633508 0.29533386
-11.613544 1.2640889 0.29519361
-11.086387 1.2623849 0.29750949
-11.640564 1.2672509 0.29581317
-11.613617 1.2680535 0.29686445
-11.561681 1.2683742 0.29926461
-11.086468 1.2667482 0.29786551
-11.63198 1.2702488 0.29852244
-11.561742 1.2716496 0.29599893
-11.086571 1.2723268 0.29847097
-11.561892 1.2796764 0.2966314
-11.630469 1.2828648 0.29506937
-11.613846 1.2805097 0.29657602
-11.561957 1.2832199 0.29573774
-11.036753 1.283101 0.29867268
-11.61401 1.2893711 0.29975197
-11.036841 1.2878501 0.29896477
-11.641269 1.2923198 0.29628953
-11.086937 1.292075 0.29764941
-11.036934 1.292876 0.29504997
-11.631633 1.2995063 0.29676211
-11.562252 1.299077 0.29932943
-11.087011 1.2960827 0.29790273
-11.641873 1.3013104 0.2971575
-11.633216 1.304943 0.29969817
-11.61429 1.3045123 0.29697254
-11.562284 1.3008504 0.29869598
-11.087095 1.3006363 0.29946157
-11.64304 1.3093501 0.29917106
-11.562404 1.3072401 0.29943702
-11.087218 1.3072486 0.29713947
-11.614552 1.3187617 0.29972544
-11.641948 1.3227658 0.29651916
-11.614584 1.3205042 0.29814512
-11.642615 1.3282245 0.29763967
-11.614697 1.3266088 0.29638886
-11.562786 1.3278155 0.29641795
-11.642834 1.3335013 0.29788068
-11.632147 1.3340988 0.29651356
-11.614807 1.3325992 0.29541349
-11.562876 1.3326628 0.2977587
-11.562936 1.3359172 0.2972362
-11.563093 1.3443764 0.29530668
-11.087896 1.3438897 0.29567701
-11.615187 1.3532463 0.298145
-11.088055 1.3524278 0.29639482
-11.038019 1.3514267 0.29884127
-11.615278 1.3581493 0.29679567
-11.563322 1.3567326 0.29988521
-11.632393 1.364495 0.29588667
-11.61537 1.3630993 0.29545859
-11.563417 1.3618435 0.29732627
-11.038195 1.3608494 0.29758501
-11.643321 1.3740333 0.29735979
-11.088428 1.3725076 0.2974034
-11.615594 1.3752908 0.29508567
-11.038504 1.3775554 0.29913619
-11.64366 1.382754 0.29770988
-11.563766 1.3805381 0.29910904
-11.643202 1.3880347 0.29661122
-11.632967 1.388296 0.29615152
-11.615842 1.3887352 0.29715931
-11.038651 1.3854702 0.29917812
-11.644543 1.3938526 0.29905313
-11.563984 1.3923619 0.2982133
-11.038767 1.3917499 0.29797614
-11.634877 1.4018116 0.29943839
-11.616116 1.4035784 0.29893377
-11.564173 1.4024603 0.29986745
-11.642911 1.4084811 0.2952863
-11.633253 1.4141686 0.2957705
-11.039122 1.4109172 0.29646957
-11.089229 1.4157283 0.29553625
-11.089309 1.4200689 0.2973246
-11.616575 1.4285076 0.29770041
-11.564705 1.43115 0.29589468
-11.08955 1.4330077 0.29632443
-11.645371 1.4390389 0.29903805
-11.616502 1.4353733 0.2980473
-11.611828 1.4354001 0.2960349
-11.604551 1.4355346 0.29753995
-11.588816 1.4358258 0.29768437
-11.581917 1.4359534 0.29679227
-11.568687 1.436198 0.29772097
-11.562561 1.4363112 0.29980832
-11.551744 1.4365114 0.29567927
-11.546371 1.4366108 0.29548702
-11.518974 1.4371175 0.2953119
-11.51371 1.4372149 0.29608476
-11.506795 1.4373428 0.29703104
-11.492011 1.4376161 0.29691139
-11.489281 1.4376667 0.29570061
-11.482134 1.4377987 0.29521611
-11.470498 1.438014 0.2990413
-11.463561 1.4381424 0.29964978
-11.445724 1.4384724 0.29694927
-11.401225 1.4392953 0.29926515
-11.371018 1.439854 0.29863212
-11.367535 1.4399184 0.29818958
-11.634712 1.442354 0.29763788
-11.361627 1.4400277 0.29763016
-11.354489 1.4401597 0.2992186
-11.290397 1.4413452 0.29501638
-11.282897 1.4414839 0.29559699
-11.251508 1.4420644 0.29730701
-11.244732 1.4421896 0.29644048
-11.1975 1.4430633 0.29875821
-11.193269 1.4431415 0.29981187
-11.177814 1.4434273 0.29842049
-11.161903 1.4437217 0.29902869
-11.159941 1.443758 0.29619825
-11.142018 1.4440894 0.29874712
-11.133066 1.444255 0.29580736
-11.126592 1.4443747 0.29651922
-11.121492 1.444469 0.29893112
-11.109511 1.4446906 0.2954897
-11.097546 1.444912 0.29824433
-11.089744 1.4434974 0.29651123
-11.616954 1.4480097 0.29571462
-11.086834 1.4451101 0.29982892
-11.074154 1.4453446 0.29848635
-11.065617 1.4462461 0.29750854
-11.061003 1.4455878 0.29581916
-11.052591 1.447232 0.2975837
-11.047663 1.4458345 0.29608202
-11.040918 1.4467041 0.29583913
-11.039836 1.4474692 0.29887354
-11.635561 1.4502218 0.2990106
-11.634189 1.4506656 0.29627836
-11.644646 1.4598119 0.29685205
-11.635958 1.4582853 0.2995038
-11.645518 1.4604859 0.29855609
-11.635747 1.4612086 0.29898116
-11.634858 1.4650531 0.29708326
-11.617392 1.4698782 0.29974893
-11.6461 1.4731042 0.29924214
-11.636388 1.4728209 0.29982546
-11.617584 1.4795177 0.29915965
-11.040393 1.4789019 0.29865396
-11.645317 1.4825201 0.2979086
-11.635041 1.4801279 0.29689625
-11.616138 1.4853289 0.29553193
-11.613389 1.4853797 0.29618889
-11.595488 1.4857107 0.29504004
-11.593466 1.4857451 0.29580113
-11.581458 1.4859701 0.29826975
-11.579582 1.4860048 0.29677108
-11.566244 1.4862487 0.29687098
-11.563286 1.4863018 0.29771543
-11.555277 1.4864515 0.29720709
-11.554415 1.4864702 0.29639995
-11.542009 1.4866997 0.29850936
-11.539254 1.4867479 0.29726839
-11.524605 1.4870162 0.29863513
-11.517188 1.4871587 0.29808247
-11.510822 1.4872737 0.2957283
-11.503268 1.4874135 0.29771644
-11.497299 1.487524 0.29833007
-11.492935 1.4876072 0.29914805
-11.480623 1.48783 0.29619262
-11.477378 1.4878916 0.29682702
-11.46468 1.4881248 0.29566199
-11.459237 1.4882257 0.29512542
-11.452051 1.4883633 0.29717892
-11.447071 1.4884553 0.29757074
-11.442762 1.4885304 0.29612106
-11.436435 1.4886509 0.29698974
-11.4153 1.4890428 0.29653022
-11.402554 1.4892745 0.29890198
-11.371143 1.4898556 0.29771566
-11.367059 1.4899348 0.29522049
-11.644787 1.4943378 0.29584134
-11.637988 1.4949218 0.2988739
-11.357132 1.4901166 0.29722279
-11.353127 1.4901925 0.29759753
-11.346283 1.4903157 0.29768559
-11.336714 1.4904928 0.29646114
-11.328333 1.4906509 0.29771397
-11.321871 1.4907689 0.29938254
-11.317921 1.4908435 0.29959363
-11.306906 1.4910443 0.29825968
-11.293742 1.4912907 0.29907292
-11.283932 1.4914695 0.29580045
-11.276172 1.4916142 0.29921576
-11.271882 1.491693 0.29735708
-11.268127 1.4917619 0.29856378
-11.264028 1.4918377 0.29524833
-11.258326 1.4919434 0.29821497
-11.251053 1.4920801 0.29826754
-11.248018 1.4921339 0.29878232
-11.243073 1.4922278 0.29903573
-11.239529 1.4922931 0.29853418
-11.222157 1.4926125 0.29597199
-11.219477 1.4926621 0.29736811
-11.213996 1.4927653 0.29780394
-11.205978 1.4929136 0.29611224
-11.197202 1.4930751 0.29667735
-11.182369 1.4933494 0.29813957
-11.17543 1.4934771 0.29805884
-11.163996 1.4936893 0.29752836
-11.157537 1.4938087 0.2965433
-11.152983 1.4938926 0.29632136
-11.124105 1.4944277 0.29737741
-11.117979 1.4945401 0.29720846
-11.107829 1.4947278 0.29870704
-11.101793 1.4948397 0.2983059
-11.097927 1.4949112 0.29671854
-11.04061 1.4909728 0.29825541
-11.633069 1.4950128 0.29721981
-11.614738 1.4953521 0.29774845
-11.596719 1.4956855 0.29681
-11.585257 1.4958975 0.29822296
-11.577369 1.4960436 0.29563522
-11.56811 1.4962147 0.29911843
-11.561091 1.4963447 0.29949394
-11.547289 1.4966002 0.29630873
-11.526022 1.4969934 0.29604402
-11.524015 1.4970307 0.29792833
-11.50247 1.4974294 0.29766399
-11.488125 1.4976948 0.29582441
-11.482757 1.497794 0.2987704
-11.478377 1.4978752 0.29741293
-11.461936 1.4981794 0.29679051
-11.442453 1.4985399 0.29687095
-11.439205 1.4986 0.29762727
-11.432382 1.4987262 0.29963973
-11.396951 1.4993819 0.29871014
-11.080072 1.4952419 0.29590023
-11.073895 1.4953561 0.29561889
-11.069696 1.4954336 0.29664189
-11.041627 1.4959528 0.29644048
-11.363206 1.5000062 0.29982457
-11.352077 1.5002121 0.29651901
-11.339424 1.5004463 0.29794514
-11.31454 1.5009066 0.29550076
-11.296437 1.5012416 0.29590085
-11.279874 1.5015483 0.29719087
-11.273996 1.5016568 0.297196
-11.255611 1.5019971 0.29872963
-11.241719 1.5022541 0.29907149
-11.229342 1.5024831 0.29984385
-11.211275 1.5028174 0.29601893
-11.190747 1.5031973 0.29937711
-11.184344 1.5033158 0.29681167
-11.162006 1.5037292 0.29724252
-11.158272 1.5037982 0.29715267
-11.140543 1.5041262 0.29848415
-11.123181 1.5044475 0.2970193
-11.117522 1.5045522 0.29729846
-11.110535 1.5046816 0.29805562
-11.105082 1.5047824 0.2959882
-11.087277 1.5051118 0.29835498
-11.077442 1.5052938 0.29745659
-11.074783 1.5053431 0.29731968
-11.06918 1.5054468 0.29946873
-11.061713 1.5055848 0.29558933
-11.632006 0.67739791 0.30050766
-11.623556 0.67505157 0.30349502
-11.615037 0.67520922 0.3028515
-11.607903 0.67534119 0.30050582
-11.572871 0.67598939 0.30196685
-11.551236 0.67638975 0.30350262
-11.544559 0.67651331 0.30167276
-11.535378 0.67668319 0.30131447
-11.524133 0.67689121 0.30266878
-11.517609 0.67701197 0.30257034
-11.501831 0.67730391 0.30208129
-11.497183 0.67738998 0.30380195
-11.464769 0.67798966 0.30362755
-11.45717 0.67813027 0.30054015
-11.452447 0.67821765 0.30213499
-11.446794 0.67832232 0.30477038
-11.437225 0.67849934 0.30104694
-11.427021 0.67868817 0.30346495
-11.423292 0.67875713 0.30327231
-11.398095 0.67922336 0.30247408
-11.382631 0.67950952 0.3016727
-11.361115 0.67990762 0.30068201
-11.358512 0.67995584 0.30307317
-11.346346 0.68018091 0.30073941
-11.34481 0.68020934 0.30169588
-11.321305 0.68064427 0.3007074
-11.313615 0.68078655 0.30421424
-11.239349 0.68216074 0.30023992
-11.229073 0.68235087 0.30452493
-11.137612 0.68404323 0.30090255
-11.134689 0.68409729 0.30002713
-11.127864 0.68422359 0.30142894
-11.624018 0.68502575 0.30202147
-11.602657 0.68543994 0.30358785
-11.596949 0.68552631 0.30040249
-11.585485 0.6857512 0.30103165
-11.555185 0.68631834 0.30103543
-11.55426 0.68632573 0.30228636
-11.545817 0.68649161 0.30133685
-11.523386 0.68690664 0.30229378
-11.511635 0.68711442 0.30222678
-11.502911 0.68727577 0.3024013
-11.498096 0.68737447 0.30357715
-11.492021 0.68748695 0.30315188
-11.488426 0.68755347 0.30065238
-11.484274 0.68761098 0.30139762
-11.478061 0.68774521 0.30206516
-11.472401 0.68783069 0.30487323
-11.462799 0.68802762 0.30332899
-11.456757 0.68813938 0.30263963
-11.451389 0.68821949 0.30477744
-11.449687 0.68827021 0.30208924
-11.444029 0.68837476 0.30459061
-11.438557 0.68845689 0.30218863
-11.427578 0.68866003 0.30361405
-11.423434 0.68875593 0.3046248
-11.418259 0.68885165 0.30339876
-11.413146 0.68892705 0.30148542
-11.406899 0.68904269 0.3023127
-11.398297 0.68920177 0.30402586
-11.392437 0.68931985 0.30158824
-11.384733 0.68947196 0.30276859
-11.37962 0.68954736 0.30115634
-11.374442 0.68965596 0.3032321
-11.35798 0.68994772 0.30256653
-11.078805 0.68513131 0.3029578
-11.056784 0.68553883 0.30165067
-11.048575 0.6856907 0.30328795
-11.042117 0.68581021 0.30477759
-11.037476 0.68589604 0.30228326
-11.632578 0.69357514 0.30102423
-11.352633 0.69006592 0.30336979
-11.33507 0.69037163 0.30355451
-11.32762 0.69052863 0.303927
-11.315259 0.69075727 0.30434898
-11.312189 0.6908142 0.30303839
-11.301737 0.69098842 0.30212486
-11.295798 0.69111741 0.30217028
-11.291428 0.69119835 0.30197102
-11.287483 0.69125205 0.3027378
-11.283023 0.69133466 0.30070651
-11.274852 0.6915049 0.3032957
-11.262672 0.69172072 0.30317318
-11.256484 0.69184482 0.30426842
-11.254023 0.69187123 0.30400398
-11.242039 0.69210249 0.30066037
-11.235848 0.69222659 0.30254477
-11.231364 0.69230956 0.30109125
-11.228004 0.69235897 0.30190179
-11.21208 0.69264728 0.301303
-11.206347 0.69276291 0.30170202
-11.199668 0.69289607 0.30307257
-11.186139 0.69313997 0.30184242
-11.184449 0.69317758 0.30123389
-11.177563 0.69328582 0.3045899
-11.168891 0.6934464 0.30219364
-11.164475 0.69354707 0.30046532
-11.155302 0.69369781 0.30018729
-11.15416 0.69371891 0.30006459
-11.145672 0.69387597 0.30419213
-11.141774 0.6939671 0.30226895
-11.131528 0.69415677 0.30308998
-11.107998 0.69458258 0.30326062
-11.09726 0.69479072 0.30097097
-11.091917 0.69487053 0.30208331
-11.075336 0.69519645 0.30134118
-11.073486 0.69522107 0.30336067
-11.069753 0.69529969 0.30405635
-11.062724 0.69541073 0.30353877
-11.050239 0.6956417 0.304539
-11.044636 0.69574535 0.30471793
-11.025925 0.69611061 0.30389243
-11.62323 0.70216745 0.30200583
-11.026199 0.71272993 0.30127367
-11.634043 0.71617681 0.30308667
-11.624834 0.71706688 0.30463591
-11.634177 0.73513669 0.30266246
-11.603468 0.73543411 0.30001006
-11.596847 0.73555672 0.30383983
-11.564363 0.73615742 0.30484971
-11.557625 0.73628306 0.30123746
-11.541675 0.73657709 0.3042897
-11.507742 0.73720479 0.30330029
-11.501405 0.73732203 0.30061346
-11.497499 0.73739427 0.30100828
-11.493772 0.73746324 0.30329752
-11.487267 0.73758352 0.30126253
-11.478671 0.73774254 0.30128613
-11.457781 0.73812896 0.3010124
-11.440802 0.73844308 0.30065885
-11.416471 0.73889309 0.30109584
-11.412288 0.73897052 0.30440062
-11.4067 0.73907375 0.30109358
-11.396082 0.73927021 0.30131906
-11.391174 0.73936105 0.30060202
-11.386463 0.73944813 0.30484295
-11.370288 0.73974741 0.30061769
-11.026659 0.73828065 0.30284721
-11.633549 0.74188006 0.3011716
-11.603918 0.74183869 0.30009693
-11.284954 0.7413258 0.30440325
-11.279225 0.74143177 0.30051234
-11.262732 0.74173689 0.30221152
-11.246078 0.74204493 0.30363774
-11.239628 0.74216425 0.30161786
-11.219547 0.74253571 0.30396098
-11.207502 0.74275845 0.30114114
-11.200439 0.74288917 0.30329686
-11.180524 0.74325752 0.3024193
-11.179021 0.7432853 0.30314043
-11.174716 0.74336493 0.30438882
-11.167439 0.74349958 0.30459344
-11.14187 0.74397254 0.30382499
-11.121611 0.74434727 0.30262694
-11.117413 0.74442494 0.30174646
-11.11322 0.74450243 0.30247119
-11.092281 0.7448898 0.30478168
-11.086439 0.74499786 0.3015328
-11.623268 0.74963957 0.30034548
-11.067934 0.74534166 0.30207086
-11.064984 0.74539781 0.30233115
-11.051338 0.74565053 0.30246514
-11.048735 0.74569875 0.30222034
-11.041692 0.74582553 0.30139384
-11.037656 0.74590397 0.30288517
-11.026814 0.74688929 0.30097991
-11.604069 0.75003308 0.30488116
-11.552088 0.75190711 0.30022782
-11.076971 0.75436223 0.30387214
-11.633475 0.75640088 0.30049449
-11.552164 0.75597548 0.30130589
-11.623821 0.76403081 0.30091333
-11.552252 0.76077223 0.30155516
-11.027096 0.76203465 0.30309409
-11.625445 0.76554143 0.30407092
-11.623482 0.7658326 0.30017501
-11.604393 0.76762676 0.30229476
-11.552361 0.76658398 0.30146754
-11.027217 0.76862901 0.30108324
-11.552512 0.77477181 0.30296779
-11.077292 0.77170503 0.30099642
-11.634989 0.77801478 0.30269915
-11.625026 0.77610052 0.30285406
-11.604609 0.77937841 0.30308533
-11.552567 0.77767241 0.30201763
-11.077363 0.77555537 0.30194575
-11.027383 0.77756637 0.30299392
-11.604693 0.78389496 0.30182666
-11.552682 0.78388345 0.30299246
-11.624337 0.78922796 0.30101231
-11.552752 0.78769708 0.30383295
-11.027562 0.78722131 0.3024365
-11.077637 0.79031074 0.30049676
-11.604984 0.79970425 0.30116135
-11.552912 0.79625231 0.300666
-11.027712 0.79526186 0.30459991
-11.635798 0.80732584 0.30322498
-11.553154 0.80925953 0.30391341
-11.077974 0.80851507 0.30359048
-11.63644 0.81180298 0.30433491
-11.626631 0.81323457 0.30467099
-11.027998 0.81076044 0.30041617
-11.553293 0.81675303 0.3021037
-11.605527 0.82914573 0.30256575
-11.55347 0.8262831 0.30249548
-11.028296 0.82679504 0.30425209
-11.605595 0.83278978 0.30194932
-11.605644 0.83552217 0.3029018
-11.078479 0.83576095 0.30388921
-11.028622 0.84445012 0.30262709
-11.636792 0.8476758 0.30371571
-11.553876 0.84814548 0.30353847
-11.636957 0.85420132 0.30380413
-11.626624 0.85045373 0.30329484
-11.55394 0.85160679 0.30340427
-11.078808 0.85350126 0.30458844
-11.028753 0.8514998 0.30233157
-11.626719 0.856341 0.30326733
-11.028909 0.85988337 0.30086398
-11.606153 0.86313111 0.30347204
-11.079093 0.86887038 0.30144602
-11.637106 0.87052369 0.30350316
-11.606345 0.87353456 0.30290654
-11.029177 0.87430608 0.3042461
-11.637349 0.87602872 0.30377999
-11.606454 0.87942123 0.30201092
-11.079228 0.87620181 0.30067068
-11.636484 0.8811177 0.30188048
-11.079359 0.88327086 0.30246466
-11.029373 0.88489187 0.30128482
-11.63642 0.8861689 0.30157021
-11.606585 0.88651377 0.30345684
-11.637565 0.89365321 0.30356154
-11.079508 0.89120227 0.30362549
-11.029568 0.89541841 0.30072635
-11.637173 0.90230668 0.30246919
-11.55485 0.90054703 0.30153909
-11.554971 0.90710509 0.30147406
-11.636872 0.91034281 0.3015784
-11.029851 0.91068166 0.3031463
-11.637469 0.91798699 0.30248192
-11.607157 0.91752362 0.30125493
-11.555176 0.91816497 0.30306584
-11.627004 0.92198563 0.30142742
-11.080081 0.92218196 0.30315369
-11.628595 0.92952776 0.30430219
-11.638563 0.93384886 0.30406582
-11.638639 0.93586099 0.30414322
-11.628045 0.9399581 0.30283016
-11.555523 0.936809 0.30321109
-11.030313 0.93566489 0.30403236
-11.637011 0.94360876 0.30063364
-11.628368 0.94189858 0.30339718
-11.607658 0.94475543 0.30348533
-11.030403 0.94048727 0.30039129
-11.636726 0.94520962 0.30001229
-11.627933 0.94717729 0.30234292
-11.607709 0.94752181 0.30166763
-11.555747 0.94890529 0.30192924
-11.08057 0.94854951 0.3033272
-11.627687 0.95399463 0.3016046
-11.607806 0.952788 0.30127728
-11.639172 0.95678294 0.30442938
-11.03074 0.95871139 0.30412799
-11.628223 0.96438849 0.30228764
-11.608003 0.96343499 0.30384049
-11.62848 0.96882844 0.30263236
-11.55607 0.96631122 0.30040306
-11.080888 0.96572876 0.30494094
-11.081039 0.97387725 0.30489469
-11.608284 0.9787159 0.30140167
-11.081101 0.97722811 0.30446315
-11.556413 0.98473942 0.30333123
-11.608468 0.9886843 0.30433977
-11.556472 0.98792493 0.30015272
-11.031286 0.98816592 0.30397767
-11.556537 0.99140918 0.30010605
-11.081379 0.99220753 0.30281493
-11.031342 0.99112749 0.30363277
-11.639 0.99715328 0.3026126
-11.081444 0.9957093 0.30189952
-11.031446 0.99679327 0.30123451
-11.638938 1.0049148 0.30220389
-11.608751 1.0040512 0.30140623
-11.556779 1.0044227 0.30124879
-11.08157 1.0025342 0.30058128
-11.638984 1.00528 0.3022818
-11.6284 1.0068693 0.30108204
-11.081707 1.0099175 0.30354971
-11.630347 1.0128217 0.30471867
-11.55695 1.0135765 0.3020553
-11.081871 1.0188028 0.30391917
-11.031841 1.0180466 0.30208048
-11.640385 1.0219231 0.30444631
-11.630392 1.0243716 0.30438286
-11.557218 1.0280676 0.30197313
-11.64063 1.0342706 0.30447888
-11.638884 1.0338258 0.30103767
-11.629204 1.0329 0.30171934
-11.03212 1.0330895 0.30369571
-11.63916 1.0371212 0.30146244
-11.032223 1.0386542 0.30203348
-11.609463 1.0426899 0.30284119
-11.557479 1.0421358 0.3043946
-11.082287 1.0411887 0.30098158
-11.032293 1.0425098 0.30244994
-11.630265 1.0474731 0.30328655
-11.55759 1.0481255 0.30301943
-11.082417 1.0482383 0.30343086
-11.032384 1.0473639 0.30078864
-11.630611 1.0514262 0.30382788
-11.082629 1.0596689 0.30015117
-11.082714 1.0642233 0.3016268
-11.032649 1.0616624 0.30111414
-11.557939 1.066848 0.3000071
-11.639559 1.0739484 0.30090475
-11.610028 1.0733173 0.30172387
-11.558067 1.0737998 0.30217388
-11.082853 1.0717691 0.30193016
-11.629526 1.0762086 0.30077186
-11.082936 1.0761968 0.30473533
-11.641693 1.0836592 0.30477411
-11.610217 1.083596 0.30235103
-11.630066 1.0879467 0.30140865
-11.033128 1.0874921 0.30393809
-11.610359 1.0913109 0.30331796
-11.033237 1.0934269 0.30459368
-11.640108 1.0985205 0.30109286
-11.558552 1.0998795 0.30090624
-11.08333 1.0975014 0.30165106
-11.610659 1.1075516 0.30121499
-11.641058 1.117954 0.30226254
-11.631762 1.1171905 0.30369616
-11.033678 1.1171833 0.30471581
-11.631489 1.1245068 0.30288851
-11.558959 1.1218452 0.30126557
-11.033751 1.121129 0.30426753
-11.641918 1.1269108 0.30363697
-11.611066 1.1295861 0.30283526
-11.559078 1.1282341 0.30334157
-11.033852 1.1265194 0.30356592
-11.6308 1.1318265 0.30125585
-11.559188 1.1341178 0.30251932
-11.034004 1.1347657 0.30323598
-11.641689 1.1370142 0.3028132
-11.631012 1.1373965 0.30146945
-11.611219 1.13793 0.30317956
-11.632388 1.1417019 0.30403784
-11.611328 1.1438813 0.30317852
-11.084133 1.1408178 0.30423468
-11.084269 1.1480973 0.3008939
-11.642008 1.1517859 0.30290163
-11.084357 1.1529025 0.30495769
-11.034328 1.1522975 0.3029156
-11.559703 1.1618764 0.30057445
-11.034526 1.1629468 0.30349776
-11.559896 1.1722836 0.30418536
-11.084826 1.1782094 0.3030439
-11.034819 1.1787004 0.30479121
-11.560086 1.182497 0.3005569
-11.034914 1.1839039 0.30458823
-11.035028 1.1899912 0.3003749
-11.612204 1.1913993 0.30381665
-11.085121 1.1940838 0.30475909
-11.642935 1.1978981 0.30304843
-11.632214 1.1972089 0.30165917
-11.612312 1.1972482 0.3033109
-11.633554 1.2039028 0.30406594
-11.643302 1.2081158 0.30340081
-11.632565 1.2090948 0.30191857
-11.560549 1.2074033 0.30434397
-11.085342 1.2060086 0.30269277
-11.035349 1.2073097 0.30068272
-11.642075 1.2133669 0.30077863
-11.085446 1.2116653 0.30291051
-11.035474 1.2140714 0.30468339
-11.560735 1.2173501 0.30172163
-11.643671 1.2249508 0.30351478
-11.63413 1.2235475 0.30448732
-11.612759 1.2214391 0.30292448
-11.560815 1.2216938 0.30471063
-11.035675 1.2249253 0.30219519
-11.035686 1.225538 0.30071032
-11.64342 1.2316654 0.30277386
-11.644195 1.2375655 0.3040897
-11.633142 1.238794 0.3019754
-11.643543 1.2449237 0.30252945
-11.561229 1.2440175 0.30452347
-11.035984 1.2416039 0.30421138
-11.643524 1.2483027 0.30236748
-11.634693 1.2453699 0.30480343
-11.613272 1.2493298 0.30075544
-11.643948 1.2544528 0.30298057
-11.036176 1.2519348 0.30415782
-11.56152 1.2596947 0.30484283
-11.56163 1.2656064 0.30454338
-11.561744 1.2716975 0.30270571
-11.086573 1.2724566 0.30254409
-11.03653 1.2710669 0.30261427
-11.643372 1.2767859 0.30102509
-11.634243 1.2790922 0.30267763
-11.613767 1.2761472 0.3027823
-11.561961 1.2834208 0.30107307
-11.645477 1.2877384 0.30479288
-11.561993 1.285136 0.30237219
-11.087014 1.2962252 0.30401325
-11.633317 1.3005887 0.30005676
-11.614228 1.3011794 0.30487919
-11.634985 1.3096545 0.30302691
-11.562365 1.3051319 0.30062526
-11.635548 1.3126347 0.30402952
-11.643905 1.3159854 0.3006416
-11.635582 1.3161062 0.30397016
-11.634378 1.3189521 0.30148405
-11.614485 1.3151299 0.30267388
-11.634079 1.3240252 0.30070448
-11.614641 1.3236399 0.3043201
-11.562647 1.3203528 0.30203235
-11.633865 1.3288211 0.30010876
-11.614712 1.3274783 0.30243343
-11.644416 1.3335429 0.30101067
-11.614801 1.3322999 0.30121464
-11.646479 1.3396794 0.30486888
-11.087801 1.338673 0.30355769
-11.644711 1.3409756 0.30132198
-11.635504 1.3445772 0.30277595
-11.615033 1.344869 0.30100065
-11.614988 1.3424444 0.30141124
-11.63602 1.3521998 0.30351663
-11.615192 1.3535275 0.3025291
-11.634727 1.3579746 0.30074421
-11.563334 1.3573356 0.30095959
-11.038099 1.3557065 0.30340537
-11.646404 1.3638254 0.30383888
-11.64623 1.3684224 0.30332476
-11.615473 1.3687137 0.30222684
-11.038288 1.3659314 0.30427688
-11.615496 1.3700041 0.30056903
-11.038365 1.3700782 0.30255616
-11.615725 1.3823867 0.30175081
-11.563798 1.3823166 0.30192998
-11.6451 1.3852595 0.30047196
-11.635663 1.3899761 0.30142665
-11.615776 1.3851845 0.30410704
-11.088659 1.3850652 0.30161411
-11.088803 1.3927747 0.30398709
-11.636036 1.3955418 0.30196163
-11.615978 1.3961778 0.3029145
-11.564084 1.3977001 0.30075806
