# .PCD v0.7 - Point Cloud Data file format
VERSION 0.7
FIELDS x y z
SIZE 4 4 4
TYPE F F F
COUNT 1 1 1
WIDTH 1612
HEIGHT 1
VIEWPOINT 0 0 0 1 0 0 0
POINTS 1612
DATA ascii
575.9729 232.81732 485.91858
576.21655 232.3194 485.98151
577.8103 232.48523 485.93341
567.5791 232.46678 482.75958
567.74219 232.83249 482.89764
570.6228 232.4214 483.36517
572.04517 232.48869 484.09717
576.14685 232.79871 485.25616
576.70483 232.44661 485.48267
567.77856 232.28522 482.46796
570.64441 232.60513 482.88983
572.6604 232.56158 483.21582
578.09265 232.39505 484.98547
569.70337 232.71573 481.92444
576.99255 232.59363 484.02484
570.44995 232.549 481.69696
572.60608 232.31442 482.19501
578.37683 232.53145 483.55597
572.62817 232.54218 481.62726
573.02417 232.55258 481.76587
576.89136 232.52402 482.83221
572.97461 232.8154 481.41327
573.31128 232.37279 480.98535
572.8064 232.71855 480.53833
573.4353 232.43161 480.36102
577.59302 232.49792 481.80273
578.71301 232.66122 481.93011
573.21094 232.36256 479.65222
573.51367 232.43623 480.03564
577.41504 232.36508 481.05566
573.71484 232.56288 479.51709
574.43201 232.3774 479.57306
574.93457 232.49678 479.65204
577.64062 232.33208 480.21625
577.68921 232.5488 479.99249
578.5448 232.41547 478.14227
579.93286 232.73439 476.85626
578.9563 232.62532 476.04242
579.31836 232.36826 475.12122
579.82947 232.66678 474.22241
580.29419 232.62062 474.33771
580.53503 232.62149 474.39789
581.38428 232.28067 474.60785
583.32959 232.45288 475.09076
584.9364 232.54292 475.48956
587.41162 232.74605 476.10394
589.34644 232.73694 476.58417
591.34192 232.57397 477.07953
594.0553 232.77751 477.75293
594.09741 232.59 477.76337
596.67798 232.36804 478.40399
597.71191 232.61794 478.66058
598.13562 232.3728 478.76581
598.74622 232.79172 478.91736
599.36121 232.76738 479.07001
600.35864 232.83513 479.31757
602.89624 232.7832 479.94745
603.72083 232.65346 480.1521
604.3269 232.59055 480.30255
606.69592 232.35406 480.89056
607.10571 232.60127 480.99231
607.48804 232.84416 481.08722
608.82446 232.64738 481.41888
609.82495 232.69412 481.66724
610.47058 232.29245 481.82758
611.88403 232.59453 482.17834
613.71643 232.59639 482.63318
615.104 232.66444 482.9776
616.02124 232.36865 483.20526
618.09106 232.68097 483.71899
620.03491 232.47578 484.20154
621.66235 232.737 484.60547
624.6875 232.74086 485.35638
582.21375 232.4635 473.57715
585.00806 232.80267 474.27069
587.45471 232.45772 474.87805
588.43762 232.49976 475.12201
589.42883 232.58655 475.36798
592.2627 232.53154 476.07147
592.76941 232.59924 476.1972
626.37488 232.67628 485.77521
628.17456 232.71033 486.22192
628.56372 232.50015 486.31848
630.95923 232.58395 486.91309
594.41199 232.68884 476.60492
594.92798 232.60074 476.73303
595.50769 232.35092 476.87689
596.69019 232.67503 477.17041
598.16211 232.27579 477.53577
598.34058 232.68881 477.58008
599.93384 232.38977 477.97552
600.86353 232.60869 478.2063
606.69409 232.30521 479.6535
607.41626 232.68063 479.83276
608.60107 232.39525 480.12689
608.98621 232.55193 480.22247
609.95471 232.30861 480.46283
610.69312 232.45474 480.64612
611.83203 232.61137 480.92889
612.77124 232.39973 481.16199
613.93079 232.50157 481.44983
616.93958 232.41911 482.19666
620.29126 232.29704 483.02856
621.97009 232.61366 483.44531
624.32788 232.51022 484.03052
624.53394 232.63187 484.08167
625.10999 232.72427 484.22461
627.59229 232.53432 484.84082
628.39893 232.36185 485.04102
558.76807 232.99274 569.14319
560.31042 233.28848 569.52612
561.37842 232.98373 569.79114
562.05188 233.34781 569.95831
563.19641 232.91393 570.24243
563.60522 233.27228 570.34387
565.20801 233.04243 570.7417
566.69775 233.2518 571.11145
569.54321 232.97952 571.81775
555.78979 233.39125 567.76398
583.76392 233.08632 575.34753
584.18726 233.42917 575.45264
586.84668 233.12161 576.11279
588.31519 233.21106 576.47729
589.77795 233.04158 576.84033
591.07153 233.33917 577.16144
592.2605 232.89278 577.4566
594.22375 233.29257 577.94385
597.74438 232.98746 578.81775
598.19751 233.02597 578.93018
600.12683 232.93167 579.40906
600.52148 233.02852 579.50708
601.08411 233.08418 579.64673
556.17725 232.86401 567.30505
557.21545 233.3562 567.52136
558.91455 233.3656 567.94312
561.32104 233.36209 568.54041
561.67627 233.08572 568.62854
563.02197 233.33524 568.96265
566.70508 233.08617 569.87683
601.82349 233.2755 579.8302
602.83459 232.94681 580.0813
607.32349 233.17326 581.19543
556.20398 233.13492 566.63342
557.49829 232.92812 566.83679
570.53979 232.98412 570.82867
574.08862 233.31799 571.70953
574.73962 233.17715 571.87115
577.0863 232.88025 572.45361
577.98401 232.95966 572.67639
578.60254 233.10657 572.82996
579.85938 233.16507 573.14197
580.93201 233.06688 573.4082
581.45557 233.42996 573.53815
582.32642 233.32672 573.75427
583.32947 233.06711 574.0033
584.59265 233.14725 574.31689
585.59302 233.04092 574.56519
587.62476 233.11171 575.06946
588.82349 233.23088 575.367
589.17676 233.12953 575.45471
590.22412 233.18054 575.7146
593.81567 233.45271 576.6062
598.12817 233.39233 577.67657
599.46057 233.07401 578.00732
600.06958 233.08482 578.15845
601.39502 232.89453 578.48743
556.20776 233.28317 566.30743
603.26404 233.17378 578.95142
604.1853 232.97176 579.18005
605.26758 233.24165 579.44873
608.38647 233.09596 580.23352
556.80017 232.98676 564.53864
556.97083 233.37338 563.03809
558.38452 233.16415 562.77075
558.83716 232.92894 561.43903
557.81165 233.11879 560.18445
558.12817 233.0069 559.14282
558.17725 233.26483 558.40527
559.38989 233.0697 558.91565
558.21411 233.41379 557.94446
558.60999 232.91899 557.38721
560.50745 233.05637 554.43829
559.48315 233.33156 553.00623
559.52405 233.35599 552.79083
559.8429 233.20021 551.83289
561.07678 233.04274 552.17218
559.87048 233.27118 551.57324
561.07642 233.20114 551.84033
560.07458 233.24097 550.81427
561.2627 232.97107 551.57263
561.2439 233.37735 550.7959
561.50354 232.97176 550.60022
560.8269 232.91118 548.48071
561.93994 233.01381 548.75275
560.92725 232.9814 547.92505
562.49414 233.09184 546.35486
561.31555 233.18857 545.92651
562.66138 233.218 545.41589
562.74353 232.95937 545.62769
562.84521 232.98448 545.16437
561.85864 233.18286 543.75146
561.90405 233.07219 543.8009
562.88708 233.31741 544.29742
561.95801 233.30452 543.09741
563.43201 233.16377 542.4231
562.57825 232.93105 541.38116
563.65674 233.16528 541.51416
564.02075 233.02617 540.33862
562.89673 233.25317 539.42365
564.29175 233.15118 538.9834
564.42139 233.19963 538.35895
564.51892 233.1888 537.98865
563.56836 232.99113 537.26813
565.02075 233.07379 536.20709
563.97583 233.22327 535.14075
564.1864 233.37126 533.98273
565.72876 233.20567 533.07373
566.04517 233.00705 532.21173
565.1792 233.32182 530.09888
566.37695 233.30797 530.25684
565.40039 233.08525 529.70245
565.95178 233.03191 527.56653
565.92712 233.3152 527.07141
567.25964 232.91203 527.54248
566.17419 233.11464 526.50323
567.25171 233.39827 526.5603
567.65503 232.8687 526.04541
566.38293 233.24792 525.38574
568.17847 233.21918 523.20374
568.19861 233.30316 522.9469
568.5177 233.07082 522.14923
568.49268 233.45131 521.45203
568.4845 233.32274 521.75427
568.66541 233.26683 521.14282
567.71277 233.08771 520.36279
569.16602 233.35356 518.94543
568.27686 233.0049 518.26392
569.55066 233.03534 518.06311
568.50623 233.39778 516.51453
569.98792 233.15724 516.04785
570.06567 233.35361 515.31012
570.40308 232.95869 514.76941
570.46643 233.31821 513.75024
570.72839 232.90858 513.55396
569.51917 233.41013 512.42218
570.82751 232.95932 513.05322
569.9126 232.88411 511.93997
571.28442 233.11093 510.90451
571.56494 233.31699 509.33566
570.85376 233.26218 507.35461
570.9707 233.30347 506.79684
572.94702 232.96208 504.51462
571.97705 233.02888 503.31662
573.06091 233.31108 503.32419
572.14783 232.90726 502.88345
572.14209 233.27074 502.14468
573.88818 232.86732 500.92371
572.67017 233.40506 499.7341
574.08472 233.3997 499.01675
574.3269 233.42635 497.9866
568.94897 232.95169 494.02023
570.31824 232.95274 494.70197
572.29688 233.13388 495.43472
573.93445 232.92999 495.63406
569.29614 233.20346 493.99728
569.79663 232.99741 493.85306
574.04053 233.10506 494.84045
575.01733 233.23746 495.60233
574.22144 233.06653 494.19226
570.01147 233.06473 492.84207
574.30786 233.01773 493.9462
569.86084 233.14467 491.94659
573.87537 233.44406 493.05399
568.22253 233.36499 491.04962
569.98474 233.35388 491.45316
574.54492 233.19771 492.61667
568.45544 233.08852 490.69073
570.0249 233.08347 490.97473
574.41174 233.01976 491.78351
574.67615 233.14697 492.19217
566.73694 233.23463 489.24701
568.59253 233.22464 489.8598
570.27014 233.14917 490.44159
574.38879 233.18022 491.53952
574.85303 233.0762 491.62946
566.16602 232.97798 488.32336
566.33044 233.04277 488.61041
568.88 233.06149 489.04425
570.2467 233.15501 489.93945
574.92102 233.19472 491.1098
576.03992 233.44255 491.05469
568.96948 233.15865 488.47284
570.69324 233.28465 489.04559
574.96936 233.32355 490.63818
566.03552 233.06117 487.21143
569.10474 233.09882 488.05121
570.7478 233.17331 488.76849
571.05652 232.9897 488.78723
574.82446 233.33253 489.46826
575.19324 233.39749 489.59076
569.12708 233.44177 487.25226
571.08643 232.97862 487.81366
574.97778 233.13945 489.25537
576.49304 233.2204 489.69598
566.08423 233.07208 486.03583
569.37988 233.11908 486.90137
570.99353 233.16618 487.49646
575.53137 233.19287 488.6507
576.82397 232.90378 489.02747
571.36121 233.2756 486.95404
575.29663 233.11246 488.02393
576.6499 233.43584 488.61298
569.65149 233.13548 485.77264
571.02698 233.4248 486.23187
571.42444 233.41606 486.40674
575.9187 233.06075 487.36322
566.51709 232.90317 484.57996
566.83838 233.23373 484.39917
571.20374 233.34848 485.68597
571.91589 232.90062 485.51044
575.57532 233.23817 486.64319
566.76245 232.86172 484.05811
570.03931 233.05794 484.37787
571.6803 233.1498 485.35095
571.49023 233.27971 484.67688
571.74536 233.1413 484.52216
577.37549 233.30899 485.95795
568.651 233.34572 482.74823
571.62122 233.35661 483.97992
572.12769 233.23239 483.95593
575.96545 233.18799 485.17255
577.55591 233.14833 485.56836
568.43005 232.94298 482.45203
570.23267 233.45303 482.77545
572.26074 233.19507 483.49701
576.16248 233.31723 484.68707
576.63794 232.88591 484.83984
577.59814 233.44882 484.76801
569.92358 233.28751 482.2547
570.48108 233.23477 482.23053
572.50769 233.00632 482.89752
576.44714 233.31525 483.83405
576.78882 233.00392 483.97455
570.68726 233.14757 481.58575
576.61206 233.25363 483.29828
577.00403 232.94305 483.23596
577.95776 233.37967 483.46545
572.42566 232.88068 481.73163
576.67175 233.25267 482.76691
577.09253 232.95686 482.85419
571.21338 233.4243 480.48798
572.44336 233.25198 480.88586
577.03101 233.32042 482.33929
572.55444 233.28671 480.36005
573.00391 233.13945 480.61395
576.94116 233.02261 481.58508
577.36499 233.04918 481.55731
572.78613 233.08987 479.84338
573.26501 232.90236 480.05859
577.46814 232.98807 481.28046
578.70557 233.07001 481.10406
574.38452 232.88834 479.64886
577.49695 233.423 480.25183
577.62439 232.99413 480.63721
578.84436 233.19978 480.2594
577.9679 232.95262 479.34137
579.05212 232.98698 479.86877
579.16235 233.24519 478.88538
579.19666 233.28413 478.66516
579.42163 232.91719 478.5293
578.28284 233.26067 477.42413
578.36572 233.37975 476.84015
580.0376 233.0023 475.87347
580.18921 232.8604 475.56049
579.06702 233.43561 474.12225
581.49438 233.17334 474.63519
582.55176 233.31029 474.89764
585.67944 233.41832 475.67401
585.93433 233.12427 475.73724
587.11829 233.03448 476.03113
588.16956 233.22668 476.29211
589.46448 233.1909 476.61346
590.73499 233.24782 476.92883
593.60449 233.28249 477.64105
594.3927 233.36581 477.83673
594.60962 233.17964 477.89056
597.62512 233.38475 478.6391
598.66858 232.93898 478.89807
600.8407 233.28668 479.43719
602.18457 233.12128 479.77081
602.65173 233.30626 479.88672
604.20264 233.3878 480.27173
604.54346 233.31877 480.35632
605.71399 233.06857 480.64685
608.38843 233.14282 481.31067
608.48267 233.38336 481.33411
611.21191 233.31821 482.01154
612.25427 233.03958 482.27026
615.08789 233.26376 482.97357
616.20569 232.9559 483.25104
617.02234 232.99602 483.4538
618.81079 233.16916 483.89771
619.56323 232.88951 484.08441
623.04321 233.19131 484.94824
623.82788 233.01938 485.14301
586.71497 233.01128 474.6944
588.08887 233.28328 475.0354
589.27515 233.06294 475.3299
590.1073 232.89723 475.53644
590.43762 232.8596 475.61841
592.54126 233.36797 476.14056
594.09375 233.21303 476.52594
625.57349 233.20549 485.57629
628.33716 232.95979 486.26233
629.60413 233.07013 486.57678
630.96558 233.32214 486.91467
631.64771 233.24821 487.08411
595.81665 233.06781 476.95355
597.90344 233.21111 477.47162
603.47571 233.26074 478.85468
605.53149 233.18399 479.36493
608.42261 233.38887 480.08258
609.41699 232.89935 480.32941
610.5946 233.05582 480.6217
612.50745 233.00972 481.0965
614.51819 233.31006 481.59564
616.3053 232.87155 482.03918
617.91174 233.19925 482.43793
619.20593 233.43671 482.75922
622.09961 233.26366 483.47748
623.09644 233.33638 483.72485
626.00562 233.12732 484.44696
627.14233 232.99289 484.72913
627.62085 233.21852 484.84784
628.36694 233.0871 485.03308
629.01929 233.21419 485.19501
631.94946 233.05472 485.96021
555.67371 233.50241 568.37512
556.43201 233.86095 568.56335
556.86707 233.7932 568.67139
559.09631 234.00481 569.22467
566.06714 233.69136 570.95496
566.85583 233.81873 571.15076
567.93872 233.6261 571.41956
569.45703 233.91136 571.79639
555.7915 233.47871 567.57251
571.02075 233.74022 572.18457
571.58691 233.66939 572.32507
573.89648 234.04868 572.89832
575.56665 233.60144 573.31287
576.01392 233.78217 573.42389
576.74878 233.96136 573.60632
577.37817 233.86411 573.76257
578.58838 233.5623 574.06299
578.93091 233.78966 574.14795
583.03394 233.7269 575.16638
584.56958 233.55318 575.54761
585.11121 233.84099 575.68201
585.7738 233.85994 575.84644
586.42444 233.76743 576.00793
588.32507 234.04927 576.47974
588.92358 233.7542 576.6283
593.61145 233.61774 577.79187
593.9635 233.62291 577.87927
594.41785 233.62743 577.99207
597.69458 233.5202 578.80542
599.05603 233.48996 579.14331
600.66162 233.95027 579.54187
555.87927 233.99776 567.1897
556.50317 233.75919 567.3446
556.93262 233.77423 567.34058
557.64734 233.70419 567.62854
559.72998 233.85719 568.14551
560.32422 233.51201 568.29297
562.69165 233.75775 568.88062
563.31604 233.7975 569.03564
565.43237 233.71088 569.56091
565.99927 233.70023 569.70166
566.67102 233.56859 569.86841
567.70862 233.4677 570.12598
569.78772 233.70436 570.64197
605.03479 233.64938 580.62732
606.25525 233.57913 580.9303
608.36487 233.63802 580.98914
556.01904 233.48456 566.64624
557.00293 233.81194 566.97852
570.55505 233.72829 570.83252
570.94458 234.04814 570.92908
571.83801 233.57961 571.15088
576.65039 233.51625 572.34546
577.80762 233.5831 572.63269
578.77319 233.74951 572.87231
579.50452 233.73511 573.05383
581.85254 233.64093 573.63672
584.00073 233.80464 574.16992
586.02515 233.98746 574.67236
589.36938 233.67017 575.50244
591.14905 233.54924 575.94421
592.56543 233.93324 576.29578
593.6698 233.88411 576.56995
599.44165 233.69276 578.00256
608.48108 233.91675 580.51819
604.60278 233.76898 579.28369
605.33667 233.77759 579.46588
608.03149 233.93347 580.13477
608.45337 233.94131 580.2395
556.32471 233.5457 565.28308
557.29163 233.91556 565.59863
557.6521 233.86656 564.24866
557.81311 233.64159 564.07159
556.6571 234.04512 562.89246
557.94543 233.81688 563.17004
556.87573 233.76215 562.60498
558.24561 233.5098 562.60547
557.0918 233.78877 561.67908
558.17944 233.83069 562.19897
558.5564 233.52235 561.32648
557.49377 233.7529 560.13489
558.61755 233.7592 560.58179
557.58569 233.80626 559.65234
558.8324 233.65865 559.92706
557.77954 233.81781 558.84766
558.98022 233.97438 558.66907
558.28088 233.47397 557.5498
558.54968 233.59294 556.21716
559.48071 233.96291 556.67542
558.66895 234.00035 554.88409
560.10767 233.68521 554.73022
559.18884 233.52888 553.77759
560.33191 233.53052 554.15063
560.54663 233.65862 553.01709
559.60059 233.50749 552.16431
560.05835 233.77567 549.75842
560.26489 233.84943 548.77307
561.61536 233.69762 548.62646
560.5603 233.84641 547.58948
561.97192 233.50735 547.58868
560.87012 233.631 546.79321
562.02258 233.72346 546.93079
561.10571 233.713 545.67175
562.35217 233.51576 546.03772
562.29077 234.017 545.23364
562.94604 233.81966 543.00574
561.94739 233.87889 541.93555
562.96228 233.96323 542.63965
563.31958 233.52126 542.12622
562.27747 233.63362 541.12036
563.3429 233.81125 541.42358
563.55542 233.95622 540.26221
563.9187 233.59055 539.5658
563.09473 233.57004 537.9613
564.18726 233.51639 538.63843
563.28198 234.01221 536.28125
564.5033 233.76878 536.83496
564.69214 233.68152 536.25684
563.78882 233.85825 534.56262
564.98486 234.04294 534.31793
564.22302 233.61583 533.32275
564.64331 233.69627 531.45862
564.72083 233.63948 531.26746
566.02307 233.53412 531.1958
564.99609 233.79869 529.83582
565.07861 233.49579 530.13751
566.18921 233.82172 529.93445
566.20728 233.56271 530.40161
566.36816 233.62462 529.6344
565.3175 233.99695 528.10968
566.7113 233.64706 528.21124
565.61353 234.04974 526.79523
565.89209 233.47447 526.87842
567.08801 233.51721 526.96594
566.26147 233.63168 525.06958
566.27588 233.4859 525.31738
567.48254 233.71626 524.96399
566.54321 233.5079 524.19373
567.51587 233.83517 524.58057
566.69397 233.49252 523.61871
566.87 234.05357 521.73267
567.1366 233.87248 521.03772
568.38489 233.66943 521.42896
567.72095 233.81833 518.79675
569.20496 233.80476 517.84351
569.40979 233.67868 517.28247
568.31775 233.83054 516.36584
568.78101 233.51369 515.16577
568.94812 233.47375 514.57678
570.04028 233.55638 514.97394
568.96106 234.02252 513.38721
570.46741 233.50809 513.35193
569.3407 234.00809 511.88223
570.88257 233.65454 511.3804
569.60962 233.94037 510.91974
570.98193 234.01141 510.23068
570.2384 233.64557 509.03116
571.44849 233.51451 509.39035
570.71106 233.67097 507.07288
571.72754 234.03462 507.17712
571.8761 233.86813 506.92752
571.40295 233.61427 504.4032
572.97461 233.80301 502.64157
571.77649 233.9516 502.19025
572.08118 233.97006 500.92316
573.47461 233.60248 501.04855
572.30164 234.01073 499.94904
573.4231 234.05257 500.31271
573.70081 234.03261 499.23581
574.05896 233.89984 498.0723
574.38379 233.6059 497.38083
573.19934 233.92168 496.51749
573.31934 233.53914 496.83658
574.52136 233.4982 497.05261
573.49707 233.55197 496.09283
571.01709 233.88272 494.81339
572.32458 233.73456 495.34348
573.02271 233.97815 495.36798
573.53577 233.63152 495.77576
568.48755 233.60437 493.26614
569.44434 233.73599 493.83948
573.09692 234.00644 495.00891
573.23145 233.76126 494.98264
574.72632 234.03842 495.09479
568.29919 233.68423 492.85553
569.07678 233.85559 493.1629
574.96143 233.74374 494.76575
569.32715 233.69589 492.49109
574.01428 233.6031 493.90616
569.74744 233.97562 491.98514
573.65039 233.95941 492.87848
567.95044 233.97203 491.22803
569.48962 233.86617 491.4881
570.05432 233.66797 491.39566
568.22595 233.65817 490.42511
575.45203 233.99475 492.26443
569.77063 233.95868 490.1701
570.21216 233.80933 490.46057
574.36462 233.68666 491.44763
575.83191 233.55861 491.64972
568.38464 233.92821 489.22211
570.01611 233.77417 489.56708
574.65845 233.83141 490.82581
575.96924 233.64247 490.92035
566.62317 233.53703 488.25085
568.75049 233.46074 488.72211
574.73499 233.73845 490.133
575.995 233.62657 490.84979
568.67969 233.98909 487.91034
570.64514 233.83775 488.66827
574.47717 233.82288 489.84009
574.58704 233.67677 489.70398
576.13782 233.81767 489.87494
566.75305 233.90878 486.83875
568.73987 234.00371 487.62103
570.4292 233.74443 487.97522
574.83032 233.60562 488.86871
566.72974 233.87431 486.55756
570.62952 233.72766 487.19867
571.02429 233.69307 487.43823
574.73267 233.94633 488.54633
575.31165 233.66756 488.53876
576.4458 233.67519 488.93329
566.55396 233.55199 485.70721
569.30225 233.63652 486.12347
570.78528 233.62776 486.78485
571.06909 233.78546 487.06042
576.64014 233.60687 488.29382
571.43286 233.58699 486.01447
575.06726 233.99672 487.09174
576.60645 233.90997 487.79443
567.05896 233.73322 484.78857
569.56653 233.73276 484.87646
569.57104 233.45934 485.43237
571.19019 233.46071 485.50177
575.12146 234.00954 486.84711
571.4314 233.90576 485.35284
575.34082 233.82936 486.34747
575.96729 233.48346 486.28027
569.75586 233.85313 483.84528
571.34644 233.65808 484.45581
571.69751 233.69499 484.72113
575.60974 233.68613 485.56714
576.0282 233.63031 485.72668
569.06934 233.69574 482.97876
569.90759 233.72783 483.50464
571.46594 233.76837 483.74384
575.68762 233.84126 484.92712
569.10913 233.55438 482.74884
569.79419 233.98137 482.91577
571.67529 233.64449 483.1582
572.12305 233.49112 483.43042
575.69849 233.98726 484.57635
575.91174 233.58649 484.55432
570.28088 233.46277 482.56097
572.17358 233.6028 482.99091
575.90063 234.02708 483.67474
576.20874 234.04379 484.13257
577.55798 233.69807 484.40729
576.06433 233.92853 483.21844
576.44604 233.72633 483.40881
570.8584 233.59129 480.88324
572.05786 233.74904 481.39795
572.57019 233.51193 481.58148
572.5553 233.68443 481.27826
576.74268 233.93959 482.20148
572.81104 233.65274 480.31323
573.72583 233.76038 479.83917
576.83813 233.54648 480.8996
576.99585 233.9743 481.11273
576.79089 233.84587 480.46143
577.30518 233.7195 480.34998
577.34058 233.84944 479.98969
577.67578 233.86023 478.61432
578.99573 233.46201 479.1012
577.88403 233.75635 477.99316
577.85913 233.93045 477.72772
579.16492 234.03873 477.21307
578.36047 233.7525 476.07983
578.41724 233.79805 475.75446
578.87085 233.54715 474.45227
578.84448 233.74985 474.13239
580.61597 233.45998 474.41718
581.1825 233.90219 474.5578
581.96558 233.71968 474.75214
582.78638 233.8418 474.95587
584.3313 233.70093 475.33936
585.5376 233.5955 475.63879
586.58875 233.66293 475.89972
587.70679 233.72624 476.17719
589.33972 233.68437 476.58252
590.57874 233.903 476.89008
591.66724 233.95743 477.16028
592.61987 233.80421 477.39667
593.19165 233.60513 477.53864
593.84253 233.94144 477.7002
578.87085 234.02565 473.45172
579.15857 233.52272 473.34631
594.91333 233.88109 477.966
596.26685 233.51575 478.30194
598.323 233.70337 478.81226
599.52014 233.85355 479.10938
600.3606 233.86186 479.31805
601.8772 233.97885 479.69452
602.15674 233.47421 479.76385
603.27869 233.74426 480.04242
604.30713 233.88992 480.29761
606.66211 233.76865 480.88226
607.02173 234.00475 480.97144
607.49585 233.86996 481.08911
608.38928 233.73811 481.31085
614.047 233.67334 482.71527
616.17102 233.8624 483.24243
617.68872 233.70464 483.6192
579.70154 233.81049 472.95355
581.35815 233.58714 473.36475
581.54407 233.46696 473.41095
584.94446 233.57256 474.25494
585.90564 233.59036 474.49353
587.40308 233.48929 474.86517
587.91748 233.92204 474.99286
588.64075 233.55228 475.17242
626.3689 233.67322 485.77374
626.98889 233.81282 485.92767
629.44653 233.528 486.5376
595.75012 233.7576 476.93707
596.26392 233.94905 477.06458
599.12109 233.75728 477.77386
601.44153 233.83084 478.34979
602.90552 233.96561 478.7132
603.60693 233.75677 478.88727
606.60413 233.78731 479.63116
607.95105 234.03023 479.96552
608.39026 233.5799 480.07452
610.77319 234.0134 480.66602
612.9126 233.66356 481.19708
614.27063 233.78702 481.53412
615.255 233.46251 481.7785
616.62878 233.88951 482.11945
616.97815 233.59097 482.20624
619.07178 233.74568 482.72589
620.06274 233.87726 482.97186
621.28577 234.0352 483.27539
621.99585 233.85451 483.4516
624.72974 233.66064 484.13025
625.50037 233.54297 484.32153
631.91406 233.89136 486.10419
625.92212 233.76617 484.42627
627.56348 233.84489 484.83368
628.23865 233.922 485.00122
628.672 233.81412 485.10883
629.26318 233.76268 485.25555
555.94336 234.29723 568.44214
557.81238 234.52493 568.90601
562.19934 234.58748 569.99493
564.5686 234.08279 570.58301
567.12903 234.26439 571.21857
568.4646 234.62361 571.55011
570.17468 234.5896 571.97461
570.70752 234.13182 572.10681
571.4021 234.30757 572.27917
573.58716 234.099 572.82159
574.03638 234.19362 572.93311
575.05432 234.5311 573.18567
575.88489 234.43297 573.39191
576.61792 234.15897 573.57385
578.35205 234.31898 574.00427
581.05334 234.16832 574.6748
581.84009 234.28905 574.87
582.31396 234.09624 574.98767
582.92139 234.21516 575.13843
585.35962 234.25793 575.74365
586.72388 234.46608 576.08228
592.02332 234.34644 577.39771
593.09985 234.29771 577.66492
594.047 234.60826 577.90002
594.46899 234.12463 578.00476
595.99805 234.37257 578.38428
596.32788 234.38214 578.46613
597.26392 234.05664 578.69849
597.56348 234.54362 578.77283
598.06372 234.55595 578.89697
600.85229 234.56174 579.58917
560.19409 234.27942 568.26062
562.39392 234.39082 568.80676
562.8905 234.54956 568.92999
563.64343 234.53873 569.11694
566.88403 234.40559 569.92126
568.21851 234.336 570.25244
568.76074 234.55219 570.38708
569.53394 234.11099 570.57898
570.04004 234.06625 570.70459
602.19556 234.58524 579.92261
602.58069 234.10533 580.01819
604.70264 234.32159 580.54492
605.85181 234.62584 580.83008
606.75732 234.30321 581.05493
608.3103 234.27657 581.21021
556.7937 234.20044 567.00708
571.75256 234.41806 571.1297
575.70667 234.53632 572.11121
576.39392 234.26155 572.28174
578.55579 234.43857 572.81836
579.87549 234.24962 573.146
580.37219 234.41388 573.26917
580.78638 234.3456 573.37207
581.64685 234.47543 573.58569
582.77002 234.51755 573.86438
583.03687 234.29573 573.93066
585.74976 234.32468 574.604
588.99683 234.17459 575.41003
589.79175 234.62213 575.6073
590.05432 234.51692 575.67249
591.71741 234.55826 576.08533
595.36731 234.47701 576.99127
598.51538 234.26015 577.77271
600.67627 234.57655 578.30908
601.22302 234.40283 578.44482
608.47961 234.23589 580.52399
601.56812 234.23944 578.5304
603.33154 234.38847 578.96814
606.07996 234.4321 579.65039
606.46167 234.41499 579.74512
607.08508 234.4471 579.89978
607.86951 234.26981 580.09454
557.03784 234.49426 565.40662
556.12561 234.42332 564.24304
556.45374 234.19817 563.39258
556.46204 234.56258 562.59302
556.94397 234.50327 560.77649
558.18762 234.40808 560.95435
558.48853 234.46738 559.61652
557.8623 234.09276 557.93848
558.93652 234.25935 558.2467
560.01013 234.3231 553.78467
560.1145 234.27832 553.45758
559.02295 234.4171 552.58484
560.19067 234.43225 552.82825
560.39014 234.23833 552.43091
560.49951 234.53168 551.37439
559.66553 234.3884 550.05676
559.67896 234.46707 549.83868
560.81714 234.55455 550.04675
560.93787 234.24767 550.20349
561.11243 234.25235 549.48987
560.63135 234.43407 546.07117
561.86755 234.24464 546.46155
561.05505 234.40741 544.42078
562.34924 234.49216 544.00061
562.60583 234.13878 543.70764
561.48608 234.45232 542.59082
562.53003 234.60719 543.03064
561.81091 234.48822 541.20801
561.90942 234.47702 540.83508
562.45581 234.12083 539.38049
563.42896 234.48068 539.67188
563.76099 234.13635 539.05524
562.70923 234.59338 537.36951
564.22009 234.13797 537.20215
563.52209 234.05504 535.2251
564.38452 234.5867 535.59705
563.61133 234.17592 534.61194
564.698 234.36801 534.79236
563.69678 234.26952 534.0719
564.01404 234.53099 532.24585
564.65869 234.28705 530.16364
565.65503 234.48151 530.68982
564.7594 234.28461 529.76733
565.87122 234.18304 530.44958
564.85217 234.60867 528.71912
566.0271 234.51382 529.14099
565.89758 234.28737 525.15979
567.0387 234.30536 525.5177
567.21948 234.62665 524.11584
566.69092 234.47716 521.56573
567.90356 234.37402 521.88971
566.8855 234.24034 521.27783
568.18933 234.43037 520.6217
567.16577 234.55531 519.48804
567.40112 234.39424 518.87817
567.53748 234.60397 517.88843
568.80127 234.25935 518.51624
568.87158 234.59685 517.52588
569.11047 234.4014 516.97363
569.46277 234.10574 516.17432
569.36243 234.59743 515.51941
569.57336 234.31001 515.2699
569.61182 234.63683 514.42615
569.77759 234.24573 514.57623
568.802 234.27309 513.50281
569.80835 234.64272 513.62891
569.03711 234.07132 512.97839
569.98267 234.62515 512.96289
569.22644 234.06447 512.22864
570.34424 234.06265 512.68689
569.26758 234.32776 511.49402
569.32397 234.21579 511.50305
569.37549 234.43636 510.82449
570.82861 234.16945 510.5195
569.89172 234.38493 508.87735
569.98792 234.11737 509.05133
571.1853 234.31064 508.78165
571.37415 234.39124 507.85184
570.36401 234.40326 506.93567
571.6405 234.48457 506.58395
570.74536 234.39503 505.41574
572.42139 234.25406 503.92307
572.4137 234.48216 503.4762
572.62781 234.40288 502.77991
571.79468 234.51015 500.94415
572.94922 234.60638 501.05978
572.08411 234.46785 499.86722
573.33923 234.22792 500.28229
573.58618 234.07484 499.6091
573.55261 234.35863 499.14932
572.60132 234.22932 498.28262
573.06079 234.17404 496.54666
573.23035 234.16042 495.89175
574.30054 234.36949 496.11514
571.11548 234.15398 494.73746
572.79175 234.44585 495.40207
573.30176 234.08498 495.76202
569.89856 234.4921 493.73166
570.43384 234.37584 494.15314
573.35278 234.40643 494.88464
574.62646 234.1454 495.27261
568.91467 234.07909 493.35095
569.33276 234.32985 492.91409
569.83423 234.65019 493.58743
573.62878 234.27974 494.03885
569.28003 234.50806 492.75104
569.39368 234.27994 492.77335
573.16614 234.57455 493.54056
574.92297 234.24489 493.87039
569.54407 234.22282 492.28616
573.24805 234.64883 493.05573
567.89172 234.19493 491.17792
569.35352 234.27391 491.1922
573.48279 234.59708 492.22043
569.45862 234.23608 490.84491
573.67468 234.30557 492.05783
575.34131 234.0683 492.55637
569.50525 234.62823 489.83978
569.93433 234.41475 490.31244
573.94214 234.11214 491.38751
567.74146 234.16765 488.80151
568.19446 234.27711 489.25159
569.52515 234.62939 489.75897
569.90112 234.24071 489.63666
573.82324 234.64096 490.75964
575.48511 234.51492 491.04089
567.19397 234.17964 488.00336
567.96167 234.51149 488.32446
569.86047 234.32838 489.0307
574.46912 234.51277 490.15985
566.9928 234.1066 487.38342
569.89722 234.48297 488.57318
574.79553 234.16698 489.57935
568.6853 234.33379 487.15198
570.20056 234.36021 487.59515
574.33875 234.56841 488.828
574.71436 234.44214 489.32733
570.25171 234.53668 487.0199
570.78101 234.22543 487.29956
574.72888 234.36314 488.55988
574.97937 234.28413 488.586
568.80298 234.53496 486.25458
574.72546 234.56187 487.86377
574.95923 234.52359 488.16156
567.35681 234.11865 485.16156
567.75134 234.51512 485.3869
569.0509 234.47704 485.36505
571.13721 234.06569 486.19922
575.26514 234.45186 487.07953
567.99841 234.50758 485.02728
575.05273 234.25244 486.61548
575.36816 234.3602 486.85626
576.41321 234.51672 487.30109
576.65808 234.24409 486.88605
568.724 234.61156 484.44788
570.79468 234.49866 484.92102
571.38062 234.21165 484.91473
575.60522 234.33517 485.95544
576.6571 234.46642 486.4245
569.63672 234.10793 483.79034
570.94971 234.64104 483.99158
571.31128 234.30424 484.41327
575.25757 234.37773 485.53662
575.70142 234.35524 485.52405
569.5437 234.12958 483.29364
571.41064 234.2363 483.86084
576.90942 234.48959 485.36005
571.24768 234.57732 482.92889
575.89771 234.54936 484.32495
576.08679 234.07791 484.55298
577.26111 234.24336 484.45996
571.55847 234.05991 482.7605
576.19678 234.33786 483.56342
577.12195 234.54816 484.38068
570.3125 234.23727 481.53381
571.52185 234.59494 481.77515
571.84656 234.21539 482.14655
575.98267 234.13908 483.10736
570.50952 234.1743 481.2226
572.13684 234.25133 481.77551
576.24792 234.63911 482.72784
576.57483 234.06746 482.61298
577.56311 234.48273 482.74237
571.02698 234.24428 480.75067
571.59521 234.64761 480.48676
576.46106 234.55353 482.0459
577.53101 234.60455 482.61646
572.4552 234.13062 480.14764
576.76758 234.36824 481.19873
573.85083 234.14105 480.03613
574.23413 234.12598 479.99445
576.62061 234.32339 480.14496
577.16382 234.37236 479.60449
577.61987 234.4734 477.55322
578.96118 234.2858 477.51508
577.90796 234.35521 476.63885
579.11255 234.09859 477.2981
578.11877 234.34732 475.80511
579.49646 234.31548 475.2998
579.56177 234.38785 474.88623
578.67285 234.13443 474.01788
582.02441 234.48936 474.76678
582.67468 234.32623 474.92816
583.84485 234.4334 475.21863
584.4209 234.41444 475.36163
585.57361 234.34891 475.64771
585.89465 234.56679 475.72742
586.76538 234.62106 475.94354
590.46216 234.1633 476.86115
596.06885 234.09221 478.25281
598.88074 234.19865 478.95081
602.44238 234.32346 479.83478
603.70532 234.52689 480.14832
603.81628 234.39699 480.17584
607.00354 234.59378 480.96698
608.71411 234.5379 481.39154
609.35535 234.4458 481.55072
609.89526 234.14432 481.68475
611.13196 234.28943 481.99164
613.29651 234.07828 482.52893
615.61365 234.4153 483.10413
617.22742 234.23788 483.50464
617.88 234.29802 483.66669
621.198 234.33405 484.49017
621.80042 234.52037 484.63977
622.82202 234.25137 484.89331
623.2323 234.36928 484.99518
624.09351 234.56845 485.20892
580.83105 234.26939 473.23395
591.45776 234.27025 475.8717
593.45642 234.14658 476.3678
593.79834 234.54143 476.45264
594.32471 234.47377 476.58325
626.2063 234.26552 485.73334
627.19507 234.39211 485.97876
627.76477 234.35103 486.12024
629.15479 234.62943 486.46527
630.51428 234.44717 486.80267
630.63403 234.2874 486.83246
631.58228 234.39905 486.94159
594.46912 234.20483 476.61914
597.41321 234.12267 477.34985
599.63452 234.26086 477.90131
601.15723 234.16275 478.27924
601.42664 234.54723 478.34613
602.19397 234.29932 478.53656
603.85168 234.44649 478.948
605.51111 234.49048 479.35992
607.15906 234.35771 479.76898
607.94775 234.19926 479.96472
610.43274 234.63275 480.58148
613.95923 234.50461 481.45691
618.50562 234.37729 482.58539
621.11963 234.57462 483.23413
625.7854 234.65373 484.39227
631.79639 234.48648 486.58099
625.99878 234.27173 484.44525
628.1062 234.45204 484.96838
630.10913 234.61951 485.46552
631.22607 234.14745 485.74274
555.24976 234.66745 568.2699
556.06042 234.90422 568.47119
556.55615 234.69246 568.59412
558.42676 234.84288 569.05847
560.79346 234.95485 569.646
561.94824 235.00845 569.93262
562.73413 234.87175 570.12769
566.41125 235.20793 571.04041
567.13354 234.82408 571.2196
568.16565 234.91641 571.47583
568.95264 235.18529 571.6712
570.55371 235.24805 572.0686
571.72632 235.19048 572.35962
573.14514 235.12599 572.71179
576.32886 234.91588 573.50208
577.08093 234.91089 573.68878
577.51831 234.83459 573.79736
578.74487 234.96822 574.10181
579.33289 234.89581 574.2478
579.92554 234.6976 574.39484
581.09216 234.97023 574.68445
581.97021 234.83777 574.90234
582.51257 235.12326 575.03699
584.57959 234.87772 575.55005
585.2428 235.05835 575.71466
586.2196 235.0387 575.95715
593.59363 234.93732 577.78748
595.44995 234.69568 578.24829
595.9082 234.78632 578.36194
596.71838 234.98726 578.56311
597.75891 235.00528 578.82135
598.29578 234.72757 578.95465
599.1156 235.19058 579.15808
555.32715 234.95813 567.00464
556.01099 235.00595 567.22363
560.38904 235.18423 568.30908
564.8313 234.85062 569.41174
565.8031 234.87285 569.65295
569.20349 234.93124 570.49695
601.33899 234.70403 579.70996
601.79797 234.92557 579.82397
602.83923 234.89668 580.0824
603.35156 234.76054 580.20953
604.63391 235.16747 580.52783
605.15588 235.18417 580.65735
605.96509 234.83183 580.85822
606.50488 234.93205 580.99219
606.99609 234.81181 581.11414
608.0542 234.80338 581.37677
555.30615 234.92215 566.50403
571.39783 234.97548 571.04163
572.19482 234.89566 571.2395
575.7085 234.82906 572.11163
576.54041 234.74725 572.31812
578.50024 234.80164 572.80457
579.22803 235.01991 572.98523
582.10852 234.74837 573.7002
582.99438 234.88524 573.92017
589.76538 234.88808 575.60083
590.90063 235.06926 575.88257
592.52563 234.7431 576.28595
593.51953 235.1635 576.53259
594.5188 234.74283 576.78064
595.15271 235.25381 576.93799
596.21558 234.7373 577.20178
597.28345 234.67589 577.46686
598.55554 235.09492 577.78259
598.79199 234.99266 577.84137
599.95984 234.95914 578.13123
555.46948 234.90443 565.88141
602.80127 234.68233 578.83655
607.43237 234.7126 579.98608
608.31641 234.87721 580.23242
555.66943 235.20735 564.43781
557.25024 234.77309 563.96637
556.14124 234.94661 563.08093
557.39746 234.93848 563.02625
556.48145 234.74973 562.12238
557.34985 235.12633 562.8241
556.42651 234.92039 561.98566
556.72192 234.96211 560.70874
556.93848 235.25313 559.2262
558.81702 234.66075 557.88702
557.69751 234.75626 557.21106
557.96558 234.82423 555.98901
559.02832 234.90594 556.5199
559.22351 234.93854 555.66492
558.18555 235.01759 554.69763
559.31104 235.07939 555.01642
559.48267 235.21007 554.0509
559.73303 235.11397 553.24292
559.98108 235.22908 552.00183
560.07593 235.22424 551.62927
560.53052 234.95311 550.36438
559.62268 235.01048 548.92529
560.80005 234.98308 549.21558
559.79382 235.08934 548.07043
560.38599 234.81491 546.26135
561.45337 235.15959 546.21173
560.42981 235.17816 545.32422
561.62488 235.02763 545.79694
560.89453 235.13751 543.53717
561.06934 234.95428 543.21716
562.32434 234.69821 543.66846
562.83423 234.94482 541.09583
561.81531 234.9678 540.18512
563.02563 234.70453 540.82922
562.16943 234.8 539.10974
563.34961 234.67751 539.5791
562.27588 235.12769 537.99536
563.37769 235.16818 538.4364
562.9231 234.71423 536.255
563.96924 234.92422 536.56311
562.849 235.1497 535.64124
564.18494 234.93752 535.66577
563.06323 235.17636 534.72272
564.28223 235.23706 534.64551
563.3949 234.89691 533.97205
563.43298 235.18578 533.21417
564.56946 235.22789 533.50684
564.69641 234.83142 533.82654
564.99841 234.78488 532.7066
563.76868 234.9651 532.32434
564.89465 235.15182 532.35529
563.85437 235.12698 531.63928
564.06067 234.99225 531.08936
565.37561 234.6779 531.40649
565.50073 234.78375 530.67725
565.60278 234.74843 530.34241
564.72644 235.14035 528.10791
566.35962 234.91972 526.95837
565.16687 235.13275 526.32617
565.37354 234.9086 525.95935
565.61853 234.73192 525.34814
567.06177 234.68861 524.62158
566.02502 234.67316 523.83789
567.09009 234.84172 524.18634
565.98914 234.9785 523.34143
567.448 234.7068 523.02808
566.35864 235.0587 521.68481
567.88892 235.1375 520.34973
566.93872 235.03122 519.40582
568.12659 235.10413 519.46265
567.24854 234.86552 518.50391
567.31873 234.99429 517.95081
567.56848 234.681 517.60156
568.70679 234.80569 517.75208
568.01611 234.80013 515.55005
569.29004 234.74535 515.4978
569.26794 235.08083 514.87823
568.49036 234.76982 513.7171
569.64832 234.92755 513.67609
568.63403 234.86852 512.92993
568.70935 235.12068 512.08533
569.11072 235.04262 510.63489
569.43713 235.1353 509.13577
569.52673 235.21686 508.60284
570.7439 235.01511 509.08167
569.87183 235.00708 507.65265
570.30823 234.82481 506.2757
570.39258 234.84837 505.88629
570.70996 235.0549 504.17447
571.87915 235.05226 504.43323
572.14624 235.19513 503.05881
572.73792 234.8652 501.36795
571.6582 234.89874 500.67966
572.73853 235.16872 500.72931
572.92554 234.73822 500.87869
573.44556 234.95215 498.33649
573.38501 234.87599 498.73917
573.56628 235.2244 497.27951
572.55151 235.22537 496.39392
573.97168 234.86417 496.40271
572.48279 234.72034 495.23694
574.01636 235.11023 495.707
570.40063 234.834 493.8345
573.02844 234.94931 495.05228
573.146 234.72437 495.04855
574.3186 234.91902 494.89099
568.65845 234.88377 492.69562
573.06213 234.93279 494.25388
568.35107 234.93666 492.36755
569.16528 234.76425 492.67355
574.59888 234.75096 494.11478
573.02881 235.15833 492.87271
574.78491 234.65619 493.56387
568.93811 235.14474 491.03241
569.33423 235.09868 491.29053
573.7793 234.74179 492.45959
567.80115 234.88271 490.19965
569.052 235.11813 490.63446
569.49646 235.13504 490.56537
573.99353 234.66992 491.74719
569.30933 234.8439 490.17212
569.65112 235.06775 490.08655
573.59741 234.90353 491.11896
575.08728 235.01221 491.60062
567.86523 235.2532 488.84033
569.50525 234.80605 489.46991
569.9491 234.7525 489.55011
573.55737 235.09372 490.88232
568.23022 234.6631 488.31036
569.46057 235.24989 488.69824
569.88354 235.13115 489.02484
573.97693 234.69228 490.03015
575.50745 234.86095 490.22626
568.19946 234.95668 487.7995
573.97607 234.86617 489.66699
568.11938 234.84972 487.19409
569.90112 234.77621 487.93671
570.33899 234.77904 487.92285
574.53894 234.8528 489.17102
568.55347 234.80389 486.70209
570.52161 234.71854 487.31
575.78833 234.98358 488.83807
568.09937 234.71428 485.91827
568.71533 234.83318 485.98676
570.25708 234.8 486.44855
570.62903 234.89192 486.5097
574.95435 234.97404 487.24237
568.93872 234.76526 485.21173
570.77795 235.13243 485.40826
574.57104 235.13411 486.70428
576.27209 234.91354 487.03729
570.54517 235.16164 484.53076
570.98535 234.92146 485.01746
575.26978 234.89819 486.12762
570.7218 234.98642 484.19055
571.16724 234.86417 484.40399
571.32397 234.90543 483.68402
575.58838 234.89705 484.84253
570.979 234.89995 483.3277
571.46106 235.01906 482.89032
575.22595 235.09917 484.15784
575.58398 235.11372 484.40588
569.75806 234.88936 482.37604
571.09863 235.11057 482.40137
575.90247 234.67693 484.03851
575.62134 234.93196 482.90735
571.45178 235.04053 481.12073
571.89282 234.95319 481.28485
575.63013 235.10188 482.51605
577.3689 234.83449 482.78705
571.94507 235.23282 480.79919
574.3927 234.73781 480.3147
574.96411 234.75163 480.27222
576.16736 234.93736 480.68597
576.52942 235.04439 480.74463
576.40601 234.69467 480.23071
577.97046 235.16533 479.6593
578.07349 234.99939 479.59149
577.29517 234.96622 477.828
578.3894 235.07004 478.17352
578.79199 234.91309 476.88293
577.79785 234.69641 476.36731
578.57544 234.94914 473.91064
578.95239 235.02147 474.00452
579.59351 234.66228 474.18335
580.40002 234.70987 474.36353
581.80835 234.72139 474.71313
586.67725 235.03134 475.92163
590.49878 234.89841 476.87024
591.84351 235.0937 477.20404
594.45679 235.17284 477.85266
595.40576 234.98454 478.0882
596.89453 235.14439 478.4577
598.35815 235.0226 478.82104
600.64172 234.90077 479.38788
604.96228 235.21254 480.46027
605.604 234.94853 480.61957
606.29456 235.10262 480.79095
607.19397 234.97438 481.01422
608.89478 234.82727 481.43646
609.79102 234.98682 481.65881
610.52307 234.72902 481.84052
612.76746 235.07344 482.39764
613.65332 234.65532 482.61749
614.79675 235.04558 482.90137
615.77368 235.00233 483.1438
616.79407 234.90341 483.39709
618.07483 234.68268 483.71503
618.78186 234.83032 483.89056
619.99243 235.17142 484.19098
620.3623 235.12067 484.28278
621.0896 234.84259 484.46332
621.59863 235.23907 484.58966
622.36511 235.12404 484.77997
624.05054 235.10483 485.19824
624.94507 234.96175 485.42029
578.854 234.88867 472.74323
580.53882 235.24443 473.16144
584.25085 235.1881 474.08276
585.92883 235.21864 474.49927
587.72095 234.70433 474.94415
588.77844 234.95222 475.2066
589.31921 234.72104 475.34082
590.80042 234.80435 475.70844
593.31665 234.84689 476.33301
594.37268 234.6991 476.59515
627.4325 234.97285 486.03772
628.64722 235.25142 486.33929
628.85229 234.80287 486.39014
630.48706 234.88412 486.79596
595.6748 235.15776 476.9184
596.6167 234.9761 477.15216
597.14868 234.79579 477.28418
598.2572 235.23563 477.55933
599.78894 235.07979 477.93958
604.36816 234.91629 479.07617
605.4021 235.00206 479.33282
605.93042 235.19093 479.46399
607.44238 234.98566 479.83929
607.92017 234.84482 479.95782
609.2478 234.87689 480.28741
612.60657 234.72803 481.12109
612.92639 235.14505 481.2005
615.91357 235.11479 481.94196
618.18091 234.81305 482.5047
618.89014 234.87129 482.68079
622.43176 234.67204 483.55981
624.22485 235.00351 484.00494
625.34302 234.77423 484.28253
626.30737 235.02875 484.52185
628.72217 234.95178 485.12122
629.59436 234.83534 485.33771
630.65991 235.15971 485.60223
557.49634 235.40549 568.82751
560.00073 235.44704 569.44922
561.11072 235.77759 569.72473
561.37122 235.29198 569.78937
562.11206 235.49272 569.97327
563.20264 235.55161 570.24396
563.84473 235.79221 570.40332
564.35376 235.71532 570.52966
565.13696 235.77798 570.72412
565.8103 235.71629 570.89124
566.9707 235.32001 571.17926
567.5022 235.36096 571.31116
568.02539 235.5237 571.44104
569.31226 235.59712 571.7605
569.39807 235.45293 571.78174
570.46484 235.64044 572.04651
570.64185 235.74695 572.09045
572.47913 235.78168 572.54651
573.76855 235.55992 572.86658
574.32776 235.31624 573.00537
574.80298 235.37849 573.12335
578.92346 235.27179 574.14612
580.34839 235.2692 574.49982
580.58643 235.44046 574.5589
581.07373 235.6194 574.67981
582.32495 235.57489 574.99036
583.95691 235.43773 575.39551
585.3313 235.81458 575.73663
585.78162 235.47754 575.84839
587.28613 235.63255 576.2218
587.42188 235.65912 576.25549
590.84253 235.61635 577.10461
591.10828 235.63098 577.17053
593.9895 235.41988 577.88574
594.59375 235.38422 578.03571
596.24548 235.55846 578.44568
599.39197 235.59824 579.22668
556.04077 235.26167 567.22974
556.69116 235.59695 567.39124
558.31726 235.61028 567.7948
558.76892 235.70421 567.90698
559.66809 235.73685 568.13013
560.87781 235.28421 568.43042
561.25171 235.32768 568.52319
562.16382 235.43466 568.74963
564.19763 235.78587 569.25446
565.09741 235.45441 569.47778
569.34119 235.69794 570.53113
603.2926 235.7289 580.19489
603.80322 235.46588 580.32166
604.56104 235.71767 580.50977
606.81348 235.34433 581.06885
607.64832 235.49167 581.276
574.95911 235.68146 571.92566
576.19629 235.57492 572.23273
578.74573 235.31668 572.86554
579.16809 235.76613 572.97034
581.03491 235.39026 573.43372
586.65051 235.73431 574.82764
590.4823 235.72841 575.77869
591.49817 235.41 576.03088
593.03748 235.7755 576.41296
593.7915 235.80588 576.60016
595.60352 235.33008 577.04993
596.0625 235.36855 577.16382
597.77026 235.85149 577.58771
556.40332 235.4743 565.90826
601.65332 235.32628 578.55157
602.43005 235.66023 578.74438
602.8396 235.83203 578.84607
603.91479 235.3645 579.11292
604.31628 235.48953 579.21252
605.87439 235.7984 579.59937
556.37964 235.76849 565.38672
556.90552 235.28619 564.27979
555.71301 235.56419 563.51251
557.12659 235.83316 562.24133
556.44934 235.28787 561.12354
557.58069 235.30261 561.52393
557.6001 235.59244 560.83765
557.94348 235.40704 559.84241
558.1748 235.38899 558.94781
556.9231 235.75751 558.23145
557.12769 235.5695 557.802
557.60522 235.49504 556.03503
558.67944 235.70988 556.23999
559.11304 235.26877 555.4173
559.0769 235.47614 555.1283
558.13794 235.48767 553.90479
559.29468 235.50189 554.19604
558.38147 235.31503 553.28552
558.74402 235.2605 551.93958
559.81384 235.60767 551.88135
558.81348 235.36909 551.4325
559.00879 235.29054 550.81085
559.95044 235.75041 551.03082
559.97913 235.70404 551.0127
560.03955 235.79333 550.58179
560.40308 235.76102 549.18372
560.66284 235.56464 548.5484
560.8291 235.79242 547.40063
559.89111 235.70432 546.38989
561.20142 235.28539 546.96368
560.17749 235.26134 546.16559
560.04224 235.85345 545.46954
560.40332 235.269 545.23975
560.91443 235.35088 543.01025
561.94397 235.54967 543.41528
562.10376 235.26529 543.3678
560.91248 235.56189 542.5755
561.9397 235.84497 542.81299
562.24976 235.37318 542.55328
561.07056 235.67435 541.70361
562.38501 235.35606 542.04419
561.41943 235.47734 540.71155
561.3988 235.74927 540.22491
562.62988 235.60059 540.54376
562.73547 235.61629 540.08533
561.84875 235.46085 539.01691
563.07056 235.73463 538.48572
563.73657 235.26767 536.78033
563.85083 235.42488 535.99048
563.03491 235.44533 534.27258
564.07434 235.77362 534.35797
563.01819 235.59286 534.03076
563.58459 235.49913 531.94641
564.88989 235.7123 531.19617
565.4447 235.42546 529.56177
565.34937 235.85217 529.05322
565.81897 235.37125 528.18652
565.77075 235.62633 527.84802
564.92297 235.80275 525.90436
566.2345 235.34584 526.56812
565.61279 235.56114 523.63647
566.65308 235.74814 524.04626
566.91663 235.59422 523.30811
566.89624 235.72198 523.12158
567.1189 235.54468 522.5968
567.625 235.59996 520.44312
567.78564 235.51006 519.98517
567.94531 235.51607 519.3299
568.11658 235.45209 518.77399
567.01282 235.70401 517.69458
567.177 235.75105 516.9342
568.40613 235.67641 517.13708
567.33704 235.69826 516.40198
568.71021 235.69949 515.82654
568.8335 235.30333 516.17786
567.66675 235.78777 514.89575
568.91003 235.38344 515.68488
567.88708 235.46985 514.67462
568.18726 235.56961 513.2594
569.45642 235.31706 513.6322
568.60425 235.77559 511.13269
568.7865 235.31453 511.35193
569.92542 235.72697 510.88834
570.30591 235.73984 509.32687
570.38098 235.33968 509.8631
570.82971 235.34569 508.04349
569.77869 235.53673 506.91653
570.91553 235.78307 506.78146
570.00513 235.75563 505.54547
570.62451 235.51306 503.5571
571.66321 235.76993 503.79846
